# This PCD file was generated using the MATLAB® pcwrite function
# from Computer Vision System Toolbox®.
# .PCD v.7 - Point Cloud Data file format
VERSION .7
FIELDS x y z
SIZE 4 4 4
TYPE F F F
COUNT 1 1 1
WIDTH 1707
HEIGHT 1
VIEWPOINT 0 0 0 1 0 0 0
POINTS 1707
DATA ascii
-0.007250 0.165050 0.045720
-0.006750 0.165057 0.046227
-0.006250 0.165064 0.046735
-0.005750 0.165071 0.047242
-0.005250 0.165078 0.047750
-0.004750 0.165082 0.048251
-0.004250 0.165082 0.048611
-0.003750 0.165081 0.048970
-0.003250 0.165080 0.049330
-0.002750 0.165080 0.049690
-0.002250 0.165079 0.049930
-0.001750 0.165079 0.050169
-0.001250 0.165078 0.050289
-0.000750 0.165078 0.050409
-0.000250 0.165078 0.050409
0.000250 0.165078 0.050409
0.000750 0.165078 0.050289
0.001250 0.165079 0.050169
0.001750 0.165079 0.050169
0.002250 0.165079 0.049930
0.002750 0.165080 0.049690
0.003250 0.165080 0.049450
0.003750 0.165081 0.049090
0.004250 0.165082 0.048611
0.004750 0.165076 0.047623
0.005250 0.165071 0.047242
0.005750 0.165061 0.046481
-0.060500 0.165767 0.062400
-0.060000 0.165766 0.062879
-0.059500 0.165762 0.064438
-0.059000 0.165761 0.064918
-0.058500 0.165760 0.065278
-0.058000 0.165759 0.065638
-0.057500 0.165759 0.065877
-0.057000 0.165758 0.066117
-0.056500 0.165757 0.066357
-0.056000 0.165757 0.066597
-0.055500 0.165756 0.066837
-0.055000 0.165755 0.067077
-0.054500 0.165755 0.067197
-0.054000 0.165755 0.067436
-0.053500 0.165754 0.067676
-0.053000 0.165753 0.067916
-0.052500 0.165753 0.068036
-0.052000 0.165752 0.068276
-0.051500 0.165752 0.068516
-0.051000 0.165751 0.068636
-0.050500 0.165751 0.068875
-0.050000 0.165751 0.068995
-0.049500 0.165750 0.069235
-0.049000 0.165749 0.069475
-0.048500 0.165749 0.069595
-0.048000 0.165749 0.069715
-0.047500 0.165748 0.070075
-0.047000 0.165747 0.070195
-0.046500 0.165747 0.070314
-0.046000 0.165747 0.070554
-0.045500 0.165746 0.070674
-0.045000 0.165746 0.070914
-0.044500 0.165745 0.071154
-0.044000 0.165745 0.071274
-0.043500 0.165744 0.071514
-0.043000 0.165744 0.071634
-0.042500 0.165743 0.071874
-0.042000 0.165743 0.072113
-0.041500 0.165742 0.072233
-0.041000 0.165742 0.072473
-0.040500 0.165741 0.072713
-0.040000 0.165740 0.072953
-0.039500 0.165740 0.073193
-0.039000 0.165739 0.073432
-0.038500 0.165739 0.073672
-0.038000 0.165738 0.074032
-0.037500 0.165737 0.074392
-0.037000 0.165736 0.074752
-0.036500 0.165735 0.075231
-0.036000 0.165733 0.075711
-0.035500 0.165731 0.076550
-0.035000 0.165730 0.077150
-0.034500 0.165728 0.077630
-0.034000 0.165727 0.078109
-0.033500 0.165727 0.078229
-0.033000 0.165727 0.078349
-0.032500 0.165726 0.078469
-0.032000 0.165726 0.078469
-0.031500 0.165726 0.078469
-0.031000 0.165726 0.078469
-0.030500 0.165727 0.078349
-0.030000 0.165727 0.078229
-0.029500 0.165727 0.078229
-0.029000 0.165727 0.078109
-0.028500 0.165727 0.077989
-0.028000 0.165728 0.077750
-0.027500 0.165728 0.077630
-0.027000 0.165729 0.077510
-0.026500 0.165729 0.077390
-0.026000 0.165729 0.077270
-0.025500 0.165730 0.077030
-0.025000 0.165730 0.076910
-0.024500 0.165731 0.076790
-0.024000 0.165731 0.076670
-0.023500 0.165731 0.076430
-0.023000 0.165732 0.076191
-0.022500 0.165732 0.076071
-0.022000 0.165733 0.075831
-0.021500 0.165733 0.075711
-0.021000 0.165734 0.075471
-0.020500 0.165735 0.075231
-0.020000 0.165735 0.074992
-0.019500 0.165736 0.074752
-0.019000 0.165737 0.074392
-0.018500 0.165738 0.074032
-0.018000 0.165739 0.073552
-0.017500 0.165740 0.073193
-0.017000 0.165740 0.072953
-0.016500 0.165741 0.072593
-0.016000 0.165742 0.072233
-0.015500 0.165743 0.071874
-0.012000 0.165686 0.038865
-0.011500 0.165699 0.039880
-0.011000 0.165709 0.040641
-0.010500 0.165718 0.041403
-0.010000 0.165728 0.042164
-0.009500 0.165736 0.042799
-0.009000 0.165744 0.043433
-0.008500 0.165752 0.044068
-0.008000 0.165759 0.044576
-0.007500 0.165767 0.045210
-0.007000 0.165773 0.045718
-0.006500 0.165780 0.046225
-0.006000 0.165786 0.046733
-0.005500 0.165791 0.047114
-0.005000 0.165798 0.047621
-0.004500 0.165802 0.048002
-0.004000 0.165803 0.048369
-0.003500 0.165802 0.048729
-0.003000 0.165802 0.049088
-0.002500 0.165801 0.049208
-0.002000 0.165801 0.049328
-0.001500 0.165800 0.049568
-0.001000 0.165800 0.049688
-0.000500 0.165800 0.049688
0.000000 0.165800 0.049688
0.000500 0.165800 0.049568
0.001000 0.165801 0.049448
0.001500 0.165801 0.049208
0.002000 0.165802 0.049088
0.002500 0.165802 0.048969
0.003000 0.165803 0.048609
0.003500 0.165803 0.048489
0.004000 0.165801 0.047875
0.004500 0.165789 0.046987
0.005000 0.165785 0.046606
-0.060750 0.166480 0.062158
-0.060250 0.166478 0.062758
-0.059750 0.166473 0.064317
-0.059250 0.166472 0.064797
-0.058750 0.166471 0.065157
-0.058250 0.166470 0.065397
-0.057750 0.166469 0.065756
-0.057250 0.166468 0.065876
-0.056750 0.166467 0.066236
-0.056250 0.166466 0.066476
-0.055750 0.166466 0.066716
-0.055250 0.166465 0.066956
-0.054750 0.166464 0.067075
-0.054250 0.166464 0.067315
-0.053750 0.166463 0.067555
-0.053250 0.166462 0.067795
-0.052750 0.166462 0.067915
-0.052250 0.166461 0.068155
-0.051750 0.166460 0.068395
-0.051250 0.166459 0.068635
-0.050750 0.166459 0.068874
-0.050250 0.166458 0.068994
-0.049750 0.166457 0.069234
-0.049250 0.166457 0.069354
-0.048750 0.166456 0.069594
-0.048250 0.166455 0.069834
-0.047750 0.166455 0.070074
-0.047250 0.166454 0.070313
-0.046750 0.166454 0.070433
-0.046250 0.166453 0.070673
-0.045750 0.166452 0.070793
-0.045250 0.166452 0.071033
-0.044750 0.166451 0.071273
-0.044250 0.166450 0.071393
-0.043750 0.166450 0.071633
-0.043250 0.166449 0.071873
-0.042750 0.166448 0.072112
-0.042250 0.166447 0.072352
-0.041750 0.166447 0.072472
-0.041250 0.166446 0.072712
-0.040750 0.166445 0.072952
-0.040250 0.166444 0.073312
-0.039750 0.166444 0.073551
-0.039250 0.166443 0.073791
-0.038750 0.166442 0.074151
-0.038250 0.166440 0.074631
-0.037750 0.166439 0.074991
-0.037250 0.166437 0.075710
-0.036750 0.166435 0.076310
-0.036250 0.166432 0.077029
-0.035750 0.166431 0.077509
-0.035250 0.166429 0.077989
-0.034750 0.166428 0.078229
-0.034250 0.166428 0.078469
-0.033750 0.166427 0.078588
-0.033250 0.166427 0.078588
-0.032750 0.166427 0.078588
-0.032250 0.166428 0.078469
-0.031750 0.166428 0.078469
-0.031250 0.166428 0.078349
-0.030750 0.166428 0.078349
-0.030250 0.166429 0.078109
-0.029750 0.166429 0.077989
-0.029250 0.166430 0.077869
-0.028750 0.166430 0.077749
-0.028250 0.166430 0.077629
-0.027750 0.166431 0.077389
-0.027250 0.166432 0.077269
-0.026750 0.166432 0.077149
-0.026250 0.166433 0.076909
-0.025750 0.166433 0.076789
-0.025250 0.166433 0.076670
-0.024750 0.166434 0.076430
-0.024250 0.166435 0.076310
-0.023750 0.166435 0.076070
-0.023250 0.166436 0.075830
-0.022750 0.166437 0.075590
-0.022250 0.166437 0.075470
-0.021750 0.166438 0.075231
-0.021250 0.166439 0.074991
-0.020750 0.166440 0.074751
-0.020250 0.166441 0.074271
-0.019750 0.166442 0.073911
-0.019250 0.166444 0.073432
-0.018750 0.166445 0.072952
-0.018250 0.166447 0.072592
-0.017750 0.166447 0.072352
-0.017250 0.166448 0.072232
-0.016750 0.166450 0.071633
-0.012250 0.166405 0.038228
-0.011750 0.166418 0.039244
-0.011250 0.166429 0.040132
-0.010750 0.166439 0.041020
-0.010250 0.166445 0.041528
-0.009750 0.166455 0.042289
-0.009250 0.166462 0.042924
-0.008750 0.166470 0.043559
-0.008250 0.166476 0.044066
-0.007750 0.166482 0.044574
-0.007250 0.166488 0.045081
-0.006750 0.166495 0.045589
-0.006250 0.166501 0.046097
-0.005750 0.166505 0.046477
-0.005250 0.166510 0.046858
-0.004750 0.166516 0.047366
-0.004250 0.166521 0.047746
-0.003750 0.166525 0.048127
-0.003250 0.166525 0.048247
-0.002750 0.166524 0.048607
-0.002250 0.166523 0.048727
-0.001750 0.166523 0.048847
-0.001250 0.166523 0.048967
-0.000750 0.166523 0.048967
-0.000250 0.166523 0.048967
0.000250 0.166523 0.048847
0.000750 0.166523 0.048727
0.001250 0.166524 0.048487
0.001750 0.166524 0.048487
0.002250 0.166525 0.048247
0.002750 0.166522 0.047873
0.003250 0.166518 0.047493
0.003750 0.166510 0.046858
0.004250 0.166502 0.046224
0.004750 0.166496 0.045716
-0.061000 0.167193 0.062037
-0.060500 0.167191 0.062517
-0.060000 0.167185 0.063956
-0.059500 0.167183 0.064676
-0.059000 0.167182 0.064916
-0.058500 0.167180 0.065275
-0.058000 0.167179 0.065515
-0.057500 0.167178 0.065875
-0.057000 0.167177 0.066115
-0.056500 0.167176 0.066355
-0.056000 0.167175 0.066595
-0.055500 0.167174 0.066835
-0.055000 0.167173 0.067074
-0.054500 0.167173 0.067194
-0.054000 0.167172 0.067434
-0.053500 0.167171 0.067674
-0.053000 0.167170 0.067914
-0.052500 0.167169 0.068154
-0.052000 0.167168 0.068394
-0.051500 0.167167 0.068633
-0.051000 0.167167 0.068753
-0.050500 0.167166 0.068993
-0.050000 0.167165 0.069233
-0.049500 0.167164 0.069353
-0.049000 0.167163 0.069713
-0.048500 0.167162 0.069953
-0.048000 0.167162 0.070073
-0.047500 0.167161 0.070312
-0.047000 0.167160 0.070552
-0.046500 0.167159 0.070792
-0.046000 0.167158 0.070912
-0.045500 0.167158 0.071152
-0.045000 0.167157 0.071392
-0.044500 0.167156 0.071632
-0.044000 0.167155 0.071752
-0.043500 0.167154 0.071992
-0.043000 0.167153 0.072231
-0.042500 0.167152 0.072471
-0.042000 0.167151 0.072711
-0.041500 0.167150 0.073071
-0.041000 0.167149 0.073311
-0.040500 0.167148 0.073670
-0.040000 0.167147 0.073910
-0.039500 0.167145 0.074390
-0.039000 0.167143 0.074870
-0.038500 0.167141 0.075470
-0.038000 0.167137 0.076429
-0.037500 0.167135 0.077029
-0.037000 0.167133 0.077508
-0.036500 0.167131 0.078108
-0.036000 0.167130 0.078348
-0.035500 0.167129 0.078468
-0.035000 0.167129 0.078588
-0.034500 0.167129 0.078588
-0.034000 0.167128 0.078708
-0.033500 0.167129 0.078588
-0.033000 0.167129 0.078588
-0.032500 0.167129 0.078468
-0.032000 0.167130 0.078348
-0.031500 0.167130 0.078228
-0.031000 0.167130 0.078228
-0.030500 0.167131 0.077988
-0.030000 0.167131 0.077868
-0.029500 0.167132 0.077628
-0.029000 0.167133 0.077508
-0.028500 0.167134 0.077268
-0.028000 0.167134 0.077148
-0.027500 0.167135 0.077029
-0.027000 0.167136 0.076789
-0.026500 0.167136 0.076669
-0.026000 0.167137 0.076429
-0.025500 0.167137 0.076309
-0.025000 0.167138 0.076069
-0.024500 0.167139 0.075949
-0.024000 0.167140 0.075709
-0.023500 0.167141 0.075350
-0.023000 0.167142 0.075230
-0.022500 0.167143 0.074870
-0.022000 0.167144 0.074510
-0.021500 0.167146 0.074150
-0.021000 0.167147 0.073790
-0.020500 0.167149 0.073311
-0.020000 0.167151 0.072951
-0.019500 0.167151 0.072711
-0.019000 0.167153 0.072231
-0.018500 0.167154 0.071992
-0.018000 0.167156 0.071632
-0.012500 0.167125 0.037592
-0.012000 0.167139 0.038734
-0.011500 0.167149 0.039623
-0.011000 0.167158 0.040384
-0.010500 0.167166 0.041146
-0.010000 0.167174 0.041780
-0.009500 0.167181 0.042415
-0.009000 0.167187 0.042922
-0.008500 0.167194 0.043557
-0.008000 0.167200 0.044064
-0.007500 0.167206 0.044572
-0.007000 0.167212 0.045080
-0.006500 0.167216 0.045460
-0.006000 0.167220 0.045841
-0.005500 0.167225 0.046222
-0.005000 0.167231 0.046729
-0.004500 0.167235 0.047110
-0.004000 0.167238 0.047364
-0.003500 0.167242 0.047745
-0.003000 0.167244 0.047872
-0.002500 0.167245 0.047998
-0.002000 0.167247 0.048125
-0.001500 0.167246 0.048245
-0.001000 0.167246 0.048245
-0.000500 0.167246 0.048245
0.000000 0.167247 0.048125
0.000500 0.167245 0.047998
0.001000 0.167244 0.047872
0.001500 0.167242 0.047745
0.002000 0.167238 0.047364
0.002500 0.167234 0.046983
0.003000 0.167232 0.046856
0.003500 0.167222 0.045968
0.004000 0.167207 0.044699
0.004500 0.167200 0.044064
-0.061250 0.167906 0.061796
-0.060750 0.167903 0.062396
-0.060250 0.167897 0.063835
-0.059750 0.167895 0.064315
-0.059250 0.167893 0.064795
-0.058750 0.167891 0.065154
-0.058250 0.167890 0.065394
-0.057750 0.167889 0.065634
-0.057250 0.167887 0.065994
-0.056750 0.167886 0.066234
-0.056250 0.167885 0.066474
-0.055750 0.167884 0.066713
-0.055250 0.167883 0.066953
-0.054750 0.167882 0.067193
-0.054250 0.167881 0.067433
-0.053750 0.167880 0.067673
-0.053250 0.167879 0.067793
-0.052750 0.167878 0.068033
-0.052250 0.167877 0.068273
-0.051750 0.167875 0.068632
-0.051250 0.167875 0.068752
-0.050750 0.167874 0.068992
-0.050250 0.167872 0.069232
-0.049750 0.167871 0.069472
-0.049250 0.167870 0.069712
-0.048750 0.167869 0.069952
-0.048250 0.167868 0.070192
-0.047750 0.167867 0.070431
-0.047250 0.167866 0.070671
-0.046750 0.167865 0.070791
-0.046250 0.167864 0.071031
-0.045750 0.167863 0.071271
-0.045250 0.167862 0.071511
-0.044750 0.167861 0.071751
-0.044250 0.167860 0.071990
-0.043750 0.167859 0.072230
-0.043250 0.167857 0.072590
-0.042750 0.167856 0.072830
-0.042250 0.167855 0.073070
-0.041750 0.167853 0.073430
-0.041250 0.167852 0.073670
-0.040750 0.167850 0.074149
-0.040250 0.167849 0.074509
-0.039750 0.167845 0.075229
-0.039250 0.167841 0.076068
-0.038750 0.167839 0.076548
-0.038250 0.167835 0.077388
-0.037750 0.167833 0.077867
-0.037250 0.167832 0.078227
-0.036750 0.167831 0.078467
-0.036250 0.167830 0.078587
-0.035750 0.167829 0.078707
-0.035250 0.167829 0.078707
-0.034750 0.167829 0.078707
-0.034250 0.167830 0.078587
-0.033750 0.167830 0.078587
-0.033250 0.167831 0.078467
-0.032750 0.167831 0.078347
-0.032250 0.167832 0.078227
-0.031750 0.167832 0.078107
-0.031250 0.167833 0.077867
-0.030750 0.167834 0.077747
-0.030250 0.167834 0.077628
-0.029750 0.167835 0.077388
-0.029250 0.167836 0.077268
-0.028750 0.167837 0.077028
-0.028250 0.167838 0.076788
-0.027750 0.167839 0.076668
-0.027250 0.167840 0.076428
-0.026750 0.167840 0.076308
-0.026250 0.167841 0.076068
-0.025750 0.167843 0.075828
-0.025250 0.167844 0.075589
-0.024750 0.167844 0.075469
-0.024250 0.167846 0.075109
-0.023750 0.167847 0.074869
-0.023250 0.167849 0.074509
-0.022750 0.167851 0.074029
-0.022250 0.167853 0.073550
-0.021750 0.167855 0.073190
-0.021250 0.167856 0.072950
-0.020750 0.167857 0.072590
-0.020250 0.167858 0.072350
-0.019750 0.167861 0.071751
-0.012750 0.167848 0.037083
-0.012250 0.167859 0.038098
-0.011750 0.167868 0.038987
-0.011250 0.167877 0.039748
-0.010750 0.167885 0.040509
-0.010250 0.167892 0.041144
-0.009750 0.167899 0.041778
-0.009250 0.167906 0.042413
-0.008750 0.167911 0.042921
-0.008250 0.167916 0.043301
-0.007750 0.167922 0.043936
-0.007250 0.167928 0.044443
-0.006750 0.167932 0.044824
-0.006250 0.167936 0.045205
-0.005750 0.167942 0.045712
-0.005250 0.167946 0.046093
-0.004750 0.167949 0.046347
-0.004250 0.167953 0.046728
-0.003750 0.167956 0.046981
-0.003250 0.167958 0.047235
-0.002750 0.167960 0.047362
-0.002250 0.167961 0.047489
-0.001750 0.167961 0.047489
-0.001250 0.167961 0.047489
-0.000750 0.167961 0.047489
-0.000250 0.167961 0.047489
0.000250 0.167958 0.047235
0.000750 0.167957 0.047108
0.001250 0.167954 0.046855
0.001750 0.167953 0.046728
0.002250 0.167946 0.046093
0.002750 0.167943 0.045839
0.003250 0.167929 0.044570
0.003750 0.167918 0.043555
-0.061500 0.168619 0.061675
-0.061000 0.168617 0.062035
-0.060500 0.168610 0.063474
-0.060000 0.168606 0.064194
-0.059500 0.168604 0.064553
-0.059000 0.168602 0.065033
-0.058500 0.168601 0.065273
-0.058000 0.168599 0.065513
-0.057500 0.168597 0.065873
-0.057000 0.168596 0.066113
-0.056500 0.168594 0.066472
-0.056000 0.168594 0.066592
-0.055500 0.168592 0.066832
-0.055000 0.168591 0.067072
-0.054500 0.168590 0.067312
-0.054000 0.168589 0.067552
-0.053500 0.168587 0.067912
-0.053000 0.168586 0.068032
-0.052500 0.168585 0.068272
-0.052000 0.168583 0.068631
-0.051500 0.168582 0.068871
-0.051000 0.168581 0.069111
-0.050500 0.168579 0.069351
-0.050000 0.168578 0.069591
-0.049500 0.168577 0.069711
-0.049000 0.168576 0.070071
-0.048500 0.168574 0.070310
-0.048000 0.168574 0.070430
-0.047500 0.168572 0.070790
-0.047000 0.168571 0.071030
-0.046500 0.168569 0.071270
-0.046000 0.168568 0.071510
-0.045500 0.168567 0.071750
-0.045000 0.168566 0.071990
-0.044500 0.168564 0.072229
-0.044000 0.168563 0.072589
-0.043500 0.168561 0.072829
-0.043000 0.168560 0.073069
-0.042500 0.168558 0.073429
-0.042000 0.168556 0.073909
-0.041500 0.168554 0.074148
-0.041000 0.168550 0.074988
-0.040500 0.168547 0.075588
-0.040000 0.168544 0.076187
-0.039500 0.168539 0.077147
-0.039000 0.168536 0.077747
-0.038500 0.168533 0.078226
-0.038000 0.168532 0.078466
-0.037500 0.168531 0.078586
-0.037000 0.168531 0.078706
-0.036500 0.168531 0.078706
-0.036000 0.168531 0.078706
-0.035500 0.168531 0.078706
-0.035000 0.168531 0.078706
-0.034500 0.168532 0.078466
-0.034000 0.168532 0.078466
-0.033500 0.168533 0.078226
-0.033000 0.168534 0.078106
-0.032500 0.168534 0.077987
-0.032000 0.168535 0.077867
-0.031500 0.168536 0.077627
-0.031000 0.168538 0.077387
-0.030500 0.168538 0.077267
-0.030000 0.168539 0.077027
-0.029500 0.168540 0.076907
-0.029000 0.168541 0.076667
-0.028500 0.168543 0.076427
-0.028000 0.168543 0.076307
-0.027500 0.168545 0.075948
-0.027000 0.168546 0.075828
-0.026500 0.168547 0.075588
-0.026000 0.168549 0.075228
-0.025500 0.168550 0.074988
-0.025000 0.168551 0.074748
-0.024500 0.168554 0.074148
-0.024000 0.168556 0.073909
-0.023500 0.168558 0.073429
-0.023000 0.168559 0.073189
-0.022500 0.168562 0.072709
-0.022000 0.168563 0.072469
-0.021500 0.168564 0.072229
-0.021000 0.168567 0.071750
-0.013500 0.168561 0.035685
-0.013000 0.168571 0.036574
-0.012500 0.168580 0.037462
-0.012000 0.168589 0.038350
-0.011500 0.168597 0.039112
-0.011000 0.168603 0.039746
-0.010500 0.168611 0.040508
-0.010000 0.168618 0.041142
-0.009500 0.168623 0.041650
-0.009000 0.168628 0.042157
-0.008500 0.168635 0.042792
-0.008000 0.168639 0.043173
-0.007500 0.168644 0.043680
-0.007000 0.168649 0.044188
-0.006500 0.168653 0.044569
-0.006000 0.168658 0.045076
-0.005500 0.168662 0.045457
-0.005000 0.168665 0.045711
-0.004500 0.168667 0.045965
-0.004000 0.168670 0.046218
-0.003500 0.168673 0.046472
-0.003000 0.168674 0.046599
-0.002500 0.168674 0.046599
-0.002000 0.168675 0.046726
-0.001500 0.168675 0.046726
-0.001000 0.168675 0.046726
-0.000500 0.168674 0.046599
0.000000 0.168671 0.046345
0.000500 0.168671 0.046345
0.001000 0.168667 0.045965
0.001500 0.168665 0.045711
0.002000 0.168656 0.044822
0.002500 0.168649 0.044188
0.003000 0.168639 0.043173
0.003500 0.168635 0.042792
-0.061750 0.169334 0.061314
-0.061250 0.169331 0.061793
-0.060750 0.169323 0.063233
-0.060250 0.169318 0.063952
-0.059750 0.169316 0.064432
-0.059250 0.169313 0.064792
-0.058750 0.169311 0.065152
-0.058250 0.169309 0.065512
-0.057750 0.169308 0.065752
-0.057250 0.169306 0.065991
-0.056750 0.169304 0.066351
-0.056250 0.169303 0.066591
-0.055750 0.169302 0.066831
-0.055250 0.169300 0.067071
-0.054750 0.169299 0.067311
-0.054250 0.169297 0.067551
-0.053750 0.169296 0.067791
-0.053250 0.169294 0.068150
-0.052750 0.169292 0.068390
-0.052250 0.169291 0.068630
-0.051750 0.169290 0.068870
-0.051250 0.169288 0.069110
-0.050750 0.169287 0.069350
-0.050250 0.169285 0.069710
-0.049750 0.169283 0.069950
-0.049250 0.169282 0.070189
-0.048750 0.169280 0.070429
-0.048250 0.169279 0.070669
-0.047750 0.169278 0.070909
-0.047250 0.169276 0.071149
-0.046750 0.169275 0.071389
-0.046250 0.169273 0.071749
-0.045750 0.169271 0.071989
-0.045250 0.169270 0.072228
-0.044750 0.169268 0.072588
-0.044250 0.169266 0.072828
-0.043750 0.169264 0.073188
-0.043250 0.169262 0.073548
-0.042750 0.169261 0.073788
-0.042250 0.169257 0.074507
-0.041750 0.169253 0.075107
-0.041250 0.169249 0.075827
-0.040750 0.169243 0.076786
-0.040250 0.169238 0.077626
-0.039750 0.169236 0.078106
-0.039250 0.169233 0.078465
-0.038750 0.169233 0.078585
-0.038250 0.169232 0.078705
-0.037750 0.169231 0.078825
-0.037250 0.169232 0.078705
-0.036750 0.169231 0.078825
-0.036250 0.169232 0.078705
-0.035750 0.169233 0.078585
-0.035250 0.169233 0.078465
-0.034750 0.169234 0.078346
-0.034250 0.169235 0.078226
-0.033750 0.169236 0.077986
-0.033250 0.169237 0.077866
-0.032750 0.169238 0.077626
-0.032250 0.169240 0.077386
-0.031750 0.169240 0.077266
-0.031250 0.169242 0.077026
-0.030750 0.169243 0.076786
-0.030250 0.169245 0.076546
-0.029750 0.169246 0.076307
-0.029250 0.169247 0.076187
-0.028750 0.169248 0.075947
-0.028250 0.169250 0.075587
-0.027750 0.169251 0.075467
-0.027250 0.169253 0.075107
-0.026750 0.169255 0.074747
-0.026250 0.169257 0.074387
-0.025750 0.169259 0.074148
-0.025250 0.169262 0.073668
-0.024750 0.169264 0.073188
-0.024250 0.169266 0.072828
-0.023750 0.169268 0.072588
-0.023250 0.169269 0.072348
-0.022750 0.169272 0.071869
-0.013750 0.169284 0.035049
-0.013250 0.169293 0.035937
-0.012750 0.169303 0.036953
-0.012250 0.169310 0.037714
-0.011750 0.169316 0.038349
-0.011250 0.169324 0.039110
-0.010750 0.169331 0.039871
-0.010250 0.169336 0.040379
-0.009750 0.169342 0.041014
-0.009250 0.169347 0.041521
-0.008750 0.169352 0.042029
-0.008250 0.169357 0.042536
-0.007750 0.169362 0.043044
-0.007250 0.169365 0.043425
-0.006750 0.169370 0.043932
-0.006250 0.169373 0.044186
-0.005750 0.169376 0.044567
-0.005250 0.169380 0.044948
-0.004750 0.169383 0.045201
-0.004250 0.169385 0.045455
-0.003750 0.169388 0.045709
-0.003250 0.169389 0.045836
-0.002750 0.169388 0.045709
-0.002250 0.169388 0.045709
-0.001750 0.169389 0.045836
-0.001250 0.169389 0.045836
-0.000750 0.169386 0.045582
-0.000250 0.169384 0.045328
0.000250 0.169383 0.045201
0.000750 0.169378 0.044694
0.001250 0.169374 0.044313
0.001750 0.169369 0.043805
0.002250 0.169359 0.042790
0.002750 0.169352 0.042029
-0.062000 0.170047 0.061192
-0.061500 0.170045 0.061552
-0.061000 0.170036 0.062872
-0.060500 0.170030 0.063831
-0.060000 0.170028 0.064191
-0.059500 0.170025 0.064671
-0.059000 0.170022 0.065031
-0.058500 0.170020 0.065391
-0.058000 0.170018 0.065631
-0.057500 0.170017 0.065870
-0.057000 0.170015 0.066230
-0.056500 0.170013 0.066470
-0.056000 0.170011 0.066710
-0.055500 0.170009 0.067070
-0.055000 0.170007 0.067310
-0.054500 0.170006 0.067550
-0.054000 0.170004 0.067790
-0.053500 0.170002 0.068149
-0.053000 0.170000 0.068389
-0.052500 0.169999 0.068629
-0.052000 0.169997 0.068989
-0.051500 0.169996 0.069109
-0.051000 0.169993 0.069469
-0.050500 0.169991 0.069829
-0.050000 0.169990 0.070069
-0.049500 0.169988 0.070308
-0.049000 0.169986 0.070668
-0.048500 0.169985 0.070788
-0.048000 0.169983 0.071028
-0.047500 0.169981 0.071388
-0.047000 0.169979 0.071628
-0.046500 0.169977 0.071988
-0.046000 0.169975 0.072228
-0.045500 0.169973 0.072587
-0.045000 0.169972 0.072827
-0.044500 0.169969 0.073187
-0.044000 0.169967 0.073547
-0.043500 0.169964 0.074027
-0.043000 0.169960 0.074626
-0.042500 0.169952 0.075826
-0.042000 0.169948 0.076426
-0.041500 0.169943 0.077145
-0.041000 0.169938 0.077985
-0.040500 0.169936 0.078345
-0.040000 0.169935 0.078465
-0.039500 0.169933 0.078705
-0.039000 0.169933 0.078705
-0.038500 0.169933 0.078705
-0.038000 0.169933 0.078705
-0.037500 0.169933 0.078705
-0.037000 0.169934 0.078585
-0.036500 0.169935 0.078465
-0.036000 0.169936 0.078345
-0.035500 0.169937 0.078105
-0.035000 0.169937 0.078105
-0.034500 0.169939 0.077865
-0.034000 0.169940 0.077625
-0.033500 0.169942 0.077385
-0.033000 0.169943 0.077265
-0.032500 0.169944 0.077025
-0.032000 0.169946 0.076785
-0.031500 0.169947 0.076546
-0.031000 0.169949 0.076306
-0.030500 0.169950 0.076066
-0.030000 0.169953 0.075706
-0.029500 0.169954 0.075466
-0.029000 0.169957 0.075106
-0.028500 0.169958 0.074866
-0.028000 0.169960 0.074626
-0.027500 0.169963 0.074147
-0.027000 0.169965 0.073787
-0.026500 0.169968 0.073427
-0.026000 0.169970 0.073067
-0.025500 0.169972 0.072827
-0.025000 0.169974 0.072467
-0.024500 0.169976 0.072108
-0.024000 0.169979 0.071628
-0.014000 0.170006 0.034286
-0.013500 0.170017 0.035428
-0.013000 0.170026 0.036444
-0.012500 0.170032 0.037078
-0.012000 0.170039 0.037839
-0.011500 0.170045 0.038474
-0.011000 0.170050 0.039108
-0.010500 0.170055 0.039616
-0.010000 0.170061 0.040250
-0.009500 0.170065 0.040758
-0.009000 0.170070 0.041266
-0.008500 0.170076 0.041900
-0.008000 0.170080 0.042408
-0.007500 0.170084 0.042789
-0.007000 0.170087 0.043169
-0.006500 0.170091 0.043550
-0.006000 0.170094 0.043931
-0.005500 0.170097 0.044184
-0.005000 0.170099 0.044438
-0.004500 0.170101 0.044692
-0.004000 0.170104 0.044946
-0.003500 0.170102 0.044819
-0.003000 0.170104 0.044946
-0.002500 0.170102 0.044819
-0.002000 0.170102 0.044819
-0.001500 0.170101 0.044692
-0.001000 0.170100 0.044565
-0.000500 0.170099 0.044438
0.000000 0.170095 0.044057
0.000500 0.170092 0.043677
0.001000 0.170086 0.043042
0.001500 0.170080 0.042408
0.002000 0.170069 0.041139
0.002500 0.170067 0.040885
-0.061750 0.170758 0.061431
-0.061250 0.170750 0.062630
-0.060750 0.170743 0.063590
-0.060250 0.170739 0.064070
-0.059750 0.170736 0.064550
-0.059250 0.170733 0.064910
-0.058750 0.170731 0.065269
-0.058250 0.170728 0.065629
-0.057750 0.170727 0.065869
-0.057250 0.170724 0.066229
-0.056750 0.170722 0.066469
-0.056250 0.170721 0.066709
-0.055750 0.170718 0.067069
-0.055250 0.170716 0.067309
-0.054750 0.170715 0.067548
-0.054250 0.170713 0.067788
-0.053750 0.170710 0.068148
-0.053250 0.170708 0.068508
-0.052750 0.170706 0.068748
-0.052250 0.170704 0.068988
-0.051750 0.170702 0.069348
-0.051250 0.170700 0.069588
-0.050750 0.170698 0.069828
-0.050250 0.170696 0.070187
-0.049750 0.170694 0.070427
-0.049250 0.170691 0.070787
-0.048750 0.170690 0.071027
-0.048250 0.170687 0.071387
-0.047750 0.170685 0.071627
-0.047250 0.170683 0.071987
-0.046750 0.170681 0.072227
-0.046250 0.170678 0.072586
-0.045750 0.170677 0.072826
-0.045250 0.170673 0.073306
-0.044750 0.170671 0.073666
-0.044250 0.170666 0.074266
-0.043750 0.170661 0.074985
-0.043250 0.170657 0.075585
-0.042750 0.170647 0.076905
-0.042250 0.170643 0.077504
-0.041750 0.170640 0.077984
-0.041250 0.170636 0.078464
-0.040750 0.170635 0.078584
-0.040250 0.170635 0.078704
-0.039750 0.170635 0.078704
-0.039250 0.170635 0.078704
-0.038750 0.170635 0.078704
-0.038250 0.170635 0.078584
-0.037750 0.170635 0.078584
-0.037250 0.170637 0.078344
-0.036750 0.170638 0.078224
-0.036250 0.170639 0.078104
-0.035750 0.170641 0.077864
-0.035250 0.170642 0.077624
-0.034750 0.170644 0.077385
-0.034250 0.170646 0.077145
-0.033750 0.170647 0.076905
-0.033250 0.170648 0.076785
-0.032750 0.170651 0.076425
-0.032250 0.170653 0.076185
-0.031750 0.170653 0.076065
-0.031250 0.170655 0.075825
-0.030750 0.170659 0.075345
-0.030250 0.170660 0.075105
-0.029750 0.170664 0.074626
-0.029250 0.170666 0.074266
-0.028750 0.170670 0.073786
-0.028250 0.170672 0.073426
-0.027750 0.170674 0.073186
-0.027250 0.170677 0.072826
-0.026750 0.170679 0.072467
-0.026250 0.170681 0.072227
-0.014250 0.170731 0.033650
-0.013750 0.170741 0.034792
-0.013250 0.170748 0.035680
-0.012750 0.170755 0.036442
-0.012250 0.170760 0.037076
-0.011750 0.170765 0.037711
-0.011250 0.170771 0.038345
-0.010750 0.170776 0.038980
-0.010250 0.170782 0.039614
-0.009750 0.170786 0.040122
-0.009250 0.170790 0.040629
-0.008750 0.170794 0.041137
-0.008250 0.170799 0.041645
-0.007750 0.170802 0.042025
-0.007250 0.170805 0.042406
-0.006750 0.170808 0.042787
-0.006250 0.170811 0.043040
-0.005750 0.170814 0.043421
-0.005250 0.170815 0.043548
-0.004750 0.170817 0.043802
-0.004250 0.170818 0.043929
-0.003750 0.170818 0.043929
-0.003250 0.170819 0.044056
-0.002750 0.170819 0.044056
-0.002250 0.170818 0.043929
-0.001750 0.170817 0.043802
-0.001250 0.170816 0.043675
-0.000750 0.170813 0.043294
-0.000250 0.170808 0.042787
0.000250 0.170805 0.042406
0.000750 0.170798 0.041518
0.001250 0.170791 0.040756
0.001750 0.170783 0.039741
-0.062000 0.171471 0.061430
-0.061500 0.171465 0.062149
-0.061000 0.171456 0.063349
-0.060500 0.171452 0.063829
-0.060000 0.171448 0.064429
-0.059500 0.171445 0.064788
-0.059000 0.171442 0.065148
-0.058500 0.171439 0.065508
-0.058000 0.171436 0.065868
-0.057500 0.171434 0.066108
-0.057000 0.171432 0.066468
-0.056500 0.171430 0.066708
-0.056000 0.171428 0.066948
-0.055500 0.171425 0.067308
-0.055000 0.171422 0.067667
-0.054500 0.171420 0.067907
-0.054000 0.171418 0.068147
-0.053500 0.171416 0.068507
-0.053000 0.171414 0.068747
-0.052500 0.171411 0.069107
-0.052000 0.171408 0.069467
-0.051500 0.171406 0.069707
-0.051000 0.171404 0.069946
-0.050500 0.171402 0.070306
-0.050000 0.171399 0.070666
-0.049500 0.171397 0.070906
-0.049000 0.171394 0.071266
-0.048500 0.171391 0.071626
-0.048000 0.171389 0.071866
-0.047500 0.171387 0.072226
-0.047000 0.171384 0.072586
-0.046500 0.171381 0.072945
-0.046000 0.171379 0.073185
-0.045500 0.171375 0.073665
-0.045000 0.171370 0.074385
-0.044500 0.171363 0.075224
-0.044000 0.171357 0.076064
-0.043500 0.171348 0.077144
-0.043000 0.171343 0.077744
-0.042500 0.171341 0.078103
-0.042000 0.171338 0.078463
-0.041500 0.171337 0.078583
-0.041000 0.171336 0.078703
-0.040500 0.171336 0.078703
-0.040000 0.171336 0.078703
-0.039500 0.171337 0.078583
-0.039000 0.171338 0.078463
-0.038500 0.171338 0.078463
-0.038000 0.171340 0.078223
-0.037500 0.171341 0.078103
-0.037000 0.171342 0.077864
-0.036500 0.171344 0.077624
-0.036000 0.171346 0.077384
-0.035500 0.171348 0.077144
-0.035000 0.171351 0.076784
-0.034500 0.171353 0.076544
-0.034000 0.171356 0.076184
-0.033500 0.171357 0.076064
-0.033000 0.171359 0.075704
-0.032500 0.171361 0.075464
-0.032000 0.171363 0.075224
-0.031500 0.171367 0.074745
-0.031000 0.171372 0.074025
-0.030500 0.171372 0.074025
-0.030000 0.171377 0.073425
-0.029500 0.171379 0.073185
-0.029000 0.171380 0.073065
-0.028500 0.171383 0.072705
-0.028000 0.171388 0.071986
-0.014500 0.171457 0.033141
-0.014000 0.171464 0.034029
-0.013500 0.171471 0.034917
-0.013000 0.171477 0.035679
-0.012500 0.171482 0.036313
-0.012000 0.171487 0.036948
-0.011500 0.171493 0.037709
-0.011000 0.171497 0.038217
-0.010500 0.171501 0.038724
-0.010000 0.171506 0.039359
-0.009500 0.171511 0.039993
-0.009000 0.171514 0.040374
-0.008500 0.171518 0.040882
-0.008000 0.171521 0.041262
-0.007500 0.171524 0.041643
-0.007000 0.171526 0.041897
-0.006500 0.171530 0.042404
-0.006000 0.171531 0.042531
-0.005500 0.171533 0.042785
-0.005000 0.171534 0.042912
-0.004500 0.171535 0.043039
-0.004000 0.171536 0.043166
-0.003500 0.171536 0.043166
-0.003000 0.171535 0.043039
-0.002500 0.171534 0.042912
-0.002000 0.171532 0.042658
-0.001500 0.171531 0.042531
-0.001000 0.171529 0.042277
-0.000500 0.171523 0.041516
0.000000 0.171518 0.040882
0.000500 0.171513 0.040247
0.001000 0.171499 0.038471
0.001500 0.171497 0.038217
-0.062250 0.172184 0.061428
-0.061750 0.172182 0.061668
-0.061250 0.172170 0.062988
-0.060750 0.172165 0.063588
-0.060250 0.172159 0.064307
-0.059750 0.172156 0.064667
-0.059250 0.172153 0.065027
-0.058750 0.172150 0.065387
-0.058250 0.172147 0.065747
-0.057750 0.172144 0.066107
-0.057250 0.172141 0.066467
-0.056750 0.172139 0.066707
-0.056250 0.172137 0.066946
-0.055750 0.172134 0.067306
-0.055250 0.172131 0.067666
-0.054750 0.172129 0.067906
-0.054250 0.172126 0.068266
-0.053750 0.172124 0.068506
-0.053250 0.172121 0.068866
-0.052750 0.172118 0.069226
-0.052250 0.172115 0.069466
-0.051750 0.172112 0.069826
-0.051250 0.172109 0.070185
-0.050750 0.172106 0.070545
-0.050250 0.172103 0.070905
-0.049750 0.172100 0.071265
-0.049250 0.172098 0.071505
-0.048750 0.172095 0.071865
-0.048250 0.172092 0.072225
-0.047750 0.172089 0.072585
-0.047250 0.172086 0.072944
-0.046750 0.172083 0.073304
-0.046250 0.172080 0.073664
-0.045750 0.172074 0.074384
-0.045250 0.172065 0.075464
-0.044750 0.172054 0.076663
-0.044250 0.172049 0.077263
-0.043750 0.172045 0.077743
-0.043250 0.172041 0.078223
-0.042750 0.172040 0.078343
-0.042250 0.172039 0.078463
-0.041750 0.172038 0.078583
-0.041250 0.172038 0.078583
-0.040750 0.172038 0.078583
-0.040250 0.172039 0.078463
-0.039750 0.172040 0.078343
-0.039250 0.172041 0.078223
-0.038750 0.172042 0.078103
-0.038250 0.172044 0.077863
-0.037750 0.172046 0.077623
-0.037250 0.172048 0.077383
-0.036750 0.172050 0.077143
-0.036250 0.172054 0.076663
-0.035750 0.172056 0.076423
-0.035250 0.172060 0.076063
-0.034750 0.172061 0.075943
-0.034250 0.172065 0.075464
-0.033750 0.172069 0.074984
-0.033250 0.172071 0.074744
-0.032750 0.172075 0.074264
-0.032250 0.172077 0.074024
-0.031750 0.172082 0.073424
-0.031250 0.172083 0.073304
-0.030750 0.172085 0.073064
-0.030250 0.172089 0.072585
-0.014750 0.172182 0.032378
-0.014250 0.172189 0.033393
-0.013750 0.172195 0.034155
-0.013250 0.172200 0.034916
-0.012750 0.172205 0.035550
-0.012250 0.172210 0.036185
-0.011750 0.172214 0.036819
-0.011250 0.172219 0.037454
-0.010750 0.172223 0.038088
-0.010250 0.172227 0.038596
-0.009750 0.172231 0.039103
-0.009250 0.172235 0.039611
-0.008750 0.172237 0.039992
-0.008250 0.172241 0.040499
-0.007750 0.172244 0.040880
-0.007250 0.172246 0.041134
-0.006750 0.172248 0.041387
-0.006250 0.172250 0.041768
-0.005750 0.172252 0.042022
-0.005250 0.172253 0.042149
-0.004750 0.172254 0.042276
-0.004250 0.172254 0.042276
-0.003750 0.172254 0.042276
-0.003250 0.172253 0.042149
-0.002750 0.172252 0.042022
-0.002250 0.172250 0.041768
-0.001750 0.172248 0.041514
-0.001250 0.172244 0.040880
-0.000750 0.172240 0.040372
-0.000250 0.172232 0.039230
0.000250 0.172227 0.038596
0.000750 0.172220 0.037581
-0.062000 0.172895 0.061547
-0.061500 0.172885 0.062627
-0.061000 0.172880 0.063226
-0.060500 0.172872 0.064066
-0.060000 0.172868 0.064546
-0.059500 0.172865 0.064906
-0.059000 0.172860 0.065386
-0.058500 0.172857 0.065746
-0.058000 0.172855 0.065986
-0.057500 0.172851 0.066345
-0.057000 0.172848 0.066705
-0.056500 0.172845 0.067065
-0.056000 0.172843 0.067305
-0.055500 0.172839 0.067665
-0.055000 0.172836 0.068025
-0.054500 0.172834 0.068265
-0.054000 0.172831 0.068625
-0.053500 0.172827 0.068985
-0.053000 0.172824 0.069345
-0.052500 0.172821 0.069705
-0.052000 0.172817 0.070064
-0.051500 0.172815 0.070304
-0.051000 0.172812 0.070664
-0.050500 0.172807 0.071144
-0.050000 0.172804 0.071504
-0.049500 0.172801 0.071864
-0.049000 0.172798 0.072224
-0.048500 0.172794 0.072584
-0.048000 0.172791 0.072944
-0.047500 0.172787 0.073423
-0.047000 0.172786 0.073543
-0.046500 0.172774 0.074863
-0.046000 0.172765 0.075823
-0.045500 0.172757 0.076662
-0.045000 0.172749 0.077502
-0.044500 0.172746 0.077862
-0.044000 0.172743 0.078222
-0.043500 0.172742 0.078342
-0.043000 0.172741 0.078462
-0.042500 0.172741 0.078462
-0.042000 0.172740 0.078582
-0.041500 0.172741 0.078462
-0.041000 0.172742 0.078342
-0.040500 0.172743 0.078222
-0.040000 0.172744 0.078102
-0.039500 0.172746 0.077862
-0.039000 0.172748 0.077622
-0.038500 0.172750 0.077382
-0.038000 0.172754 0.077022
-0.037500 0.172757 0.076662
-0.037000 0.172761 0.076182
-0.036500 0.172766 0.075703
-0.036000 0.172768 0.075463
-0.035500 0.172771 0.075103
-0.035000 0.172776 0.074623
-0.034500 0.172777 0.074503
-0.034000 0.172780 0.074143
-0.033500 0.172784 0.073663
-0.033000 0.172787 0.073423
-0.032500 0.172792 0.072824
-0.032000 0.172800 0.071984
-0.015000 0.172908 0.031742
-0.014500 0.172914 0.032630
-0.014000 0.172919 0.033392
-0.013500 0.172925 0.034153
-0.013000 0.172930 0.034914
-0.012500 0.172933 0.035422
-0.012000 0.172936 0.035929
-0.011500 0.172942 0.036818
-0.011000 0.172946 0.037325
-0.010500 0.172949 0.037833
-0.010000 0.172953 0.038340
-0.009500 0.172956 0.038848
-0.009000 0.172959 0.039229
-0.008500 0.172961 0.039609
-0.008000 0.172964 0.039990
-0.007500 0.172966 0.040371
-0.007000 0.172968 0.040624
-0.006500 0.172970 0.040878
-0.006000 0.172970 0.041005
-0.005500 0.172971 0.041132
-0.005000 0.172972 0.041259
-0.004500 0.172971 0.041132
-0.004000 0.172971 0.041132
-0.003500 0.172970 0.041005
-0.003000 0.172970 0.040878
-0.002500 0.172970 0.040878
-0.002000 0.172963 0.039863
-0.001500 0.172960 0.039482
-0.001000 0.172957 0.038975
-0.000500 0.172946 0.037325
0.000000 0.172942 0.036691
0.000500 0.172942 0.036691
-0.062250 0.173608 0.061546
-0.061750 0.173607 0.061666
-0.061250 0.173592 0.063105
-0.060750 0.173587 0.063705
-0.060250 0.173580 0.064425
-0.059750 0.173575 0.064905
-0.059250 0.173571 0.065265
-0.058750 0.173568 0.065624
-0.058250 0.173564 0.065985
-0.057750 0.173561 0.066344
-0.057250 0.173557 0.066704
-0.056750 0.173554 0.067064
-0.056250 0.173550 0.067424
-0.055750 0.173547 0.067784
-0.055250 0.173544 0.068024
-0.054750 0.173541 0.068384
-0.054250 0.173537 0.068744
-0.053750 0.173534 0.069104
-0.053250 0.173531 0.069343
-0.052750 0.173525 0.069943
-0.052250 0.173523 0.070183
-0.051750 0.173520 0.070543
-0.051250 0.173515 0.071023
-0.050750 0.173511 0.071383
-0.050250 0.173507 0.071863
-0.049750 0.173503 0.072223
-0.049250 0.173500 0.072583
-0.048750 0.173496 0.072943
-0.048250 0.173491 0.073422
-0.047750 0.173487 0.073902
-0.047250 0.173478 0.074742
-0.046750 0.173464 0.076182
-0.046250 0.173457 0.076902
-0.045750 0.173451 0.077501
-0.045250 0.173448 0.077861
-0.044750 0.173444 0.078221
-0.044250 0.173443 0.078341
-0.043750 0.173443 0.078341
-0.043250 0.173443 0.078341
-0.042750 0.173442 0.078461
-0.042250 0.173443 0.078341
-0.041750 0.173444 0.078221
-0.041250 0.173446 0.078101
-0.040750 0.173448 0.077861
-0.040250 0.173450 0.077621
-0.039750 0.173453 0.077381
-0.039250 0.173455 0.077142
-0.038750 0.173460 0.076662
-0.038250 0.173466 0.076062
-0.037750 0.173470 0.075582
-0.037250 0.173474 0.075222
-0.036750 0.173480 0.074622
-0.036250 0.173483 0.074262
-0.035750 0.173484 0.074142
-0.035250 0.173489 0.073662
-0.034750 0.173493 0.073302
-0.027250 0.173515 0.011311
-0.026750 0.173520 0.012072
-0.026250 0.173525 0.012834
-0.025750 0.173528 0.013341
-0.016750 0.173619 0.028314
-0.016250 0.173624 0.029203
-0.015750 0.173630 0.030091
-0.015250 0.173635 0.030979
-0.014750 0.173640 0.031867
-0.014250 0.173645 0.032629
-0.013750 0.173650 0.033390
-0.013250 0.173654 0.034024
-0.012750 0.173657 0.034659
-0.012250 0.173661 0.035293
-0.011750 0.173664 0.035801
-0.011250 0.173668 0.036435
-0.010750 0.173672 0.037070
-0.010250 0.173674 0.037450
-0.009750 0.173678 0.037958
-0.009250 0.173681 0.038466
-0.008750 0.173682 0.038719
-0.008250 0.173685 0.039100
-0.007750 0.173687 0.039481
-0.007250 0.173688 0.039608
-0.006750 0.173690 0.039988
-0.006250 0.173691 0.040115
-0.005750 0.173691 0.040242
-0.005250 0.173690 0.039988
-0.004750 0.173690 0.039988
-0.004250 0.173689 0.039861
-0.003750 0.173689 0.039861
-0.003250 0.173687 0.039481
-0.002750 0.173685 0.039227
-0.002250 0.173683 0.038846
-0.001750 0.173679 0.038212
-0.001250 0.173671 0.036943
-0.000750 0.173666 0.036055
-0.000250 0.173666 0.036055
-0.062000 0.174320 0.061544
-0.061500 0.174305 0.062984
-0.061000 0.174299 0.063584
-0.060500 0.174293 0.064184
-0.060000 0.174288 0.064664
-0.059500 0.174283 0.065144
-0.059000 0.174278 0.065623
-0.058500 0.174274 0.065983
-0.058000 0.174270 0.066343
-0.057500 0.174265 0.066823
-0.057000 0.174263 0.067063
-0.056500 0.174259 0.067423
-0.056000 0.174255 0.067783
-0.055500 0.174251 0.068143
-0.055000 0.174248 0.068503
-0.054500 0.174244 0.068863
-0.054000 0.174240 0.069223
-0.053500 0.174236 0.069582
-0.053000 0.174231 0.070062
-0.052500 0.174228 0.070422
-0.052000 0.174224 0.070782
-0.051500 0.174219 0.071262
-0.051000 0.174215 0.071622
-0.050500 0.174210 0.072102
-0.050000 0.174205 0.072582
-0.049500 0.174202 0.072822
-0.049000 0.174197 0.073302
-0.048500 0.174191 0.073901
-0.048000 0.174179 0.075101
-0.047500 0.174165 0.076421
-0.047000 0.174160 0.076901
-0.046500 0.174154 0.077501
-0.046000 0.174150 0.077860
-0.045500 0.174147 0.078101
-0.045000 0.174146 0.078220
-0.044500 0.174145 0.078340
-0.044000 0.174145 0.078340
-0.043500 0.174146 0.078220
-0.043000 0.174146 0.078220
-0.042500 0.174147 0.078101
-0.042000 0.174150 0.077860
-0.041500 0.174151 0.077741
-0.041000 0.174155 0.077381
-0.040500 0.174159 0.077021
-0.040000 0.174162 0.076661
-0.039500 0.174167 0.076181
-0.039000 0.174174 0.075581
-0.038500 0.174180 0.074981
-0.038000 0.174182 0.074741
-0.037500 0.174186 0.074381
-0.037000 0.174191 0.073901
-0.036500 0.174195 0.073541
-0.028000 0.174255 0.010549
-0.027500 0.174260 0.011564
-0.027000 0.174264 0.012325
-0.026500 0.174268 0.012959
-0.026000 0.174271 0.013594
-0.025500 0.174274 0.014101
-0.025000 0.174278 0.014863
-0.018500 0.174337 0.025521
-0.017500 0.174345 0.026917
-0.017000 0.174350 0.027932
-0.016500 0.174355 0.028820
-0.016000 0.174359 0.029582
-0.015500 0.174364 0.030470
-0.015000 0.174367 0.031104
-0.014500 0.174372 0.031866
-0.014000 0.174376 0.032627
-0.013500 0.174379 0.033262
-0.013000 0.174383 0.033896
-0.012500 0.174386 0.034403
-0.012000 0.174389 0.035038
-0.011500 0.174392 0.035546
-0.011000 0.174395 0.036053
-0.010500 0.174397 0.036561
-0.010000 0.174400 0.037068
-0.009500 0.174403 0.037576
-0.009000 0.174404 0.037829
-0.008500 0.174406 0.038210
-0.008000 0.174408 0.038464
-0.007500 0.174410 0.038845
-0.007000 0.174411 0.038971
-0.006500 0.174411 0.038971
-0.006000 0.174411 0.039098
-0.005500 0.174411 0.039098
-0.005000 0.174411 0.039098
-0.004500 0.174410 0.038845
-0.004000 0.174409 0.038718
-0.003500 0.174407 0.038337
-0.003000 0.174406 0.038083
-0.002500 0.174400 0.036941
-0.002000 0.174395 0.036053
-0.001500 0.174391 0.035419
-0.001000 0.174390 0.035165
-0.062250 0.175032 0.061663
-0.061750 0.175030 0.061783
-0.061250 0.175013 0.063343
-0.060750 0.175005 0.064062
-0.060250 0.174998 0.064662
-0.059750 0.174993 0.065142
-0.059250 0.174988 0.065622
-0.058750 0.174984 0.065982
-0.058250 0.174978 0.066462
-0.057750 0.174974 0.066822
-0.057250 0.174970 0.067182
-0.056750 0.174966 0.067542
-0.056250 0.174962 0.067902
-0.055750 0.174958 0.068262
-0.055250 0.174954 0.068622
-0.054750 0.174950 0.068981
-0.054250 0.174946 0.069341
-0.053750 0.174940 0.069941
-0.053250 0.174936 0.070301
-0.052750 0.174930 0.070781
-0.052250 0.174926 0.071141
-0.051750 0.174921 0.071621
-0.051250 0.174917 0.071981
-0.050750 0.174913 0.072341
-0.050250 0.174908 0.072821
-0.049750 0.174902 0.073301
-0.049250 0.174889 0.074500
-0.048750 0.174876 0.075700
-0.048250 0.174869 0.076300
-0.047750 0.174861 0.077020
-0.047250 0.174857 0.077380
-0.046750 0.174853 0.077740
-0.046250 0.174850 0.077980
-0.045750 0.174849 0.078100
-0.045250 0.174848 0.078220
-0.044750 0.174848 0.078220
-0.044250 0.174849 0.078100
-0.043750 0.174849 0.078100
-0.043250 0.174852 0.077860
-0.042750 0.174853 0.077740
-0.042250 0.174857 0.077380
-0.041750 0.174861 0.077020
-0.041250 0.174868 0.076420
-0.040750 0.174873 0.075940
-0.040250 0.174878 0.075460
-0.039750 0.174882 0.075100
-0.039250 0.174886 0.074740
-0.038750 0.174892 0.074261
-0.038250 0.174897 0.073781
-0.028250 0.175001 0.010928
-0.027750 0.175004 0.011689
-0.027250 0.175008 0.012451
-0.026750 0.175011 0.013085
-0.026250 0.175014 0.013720
-0.025750 0.175017 0.014354
-0.025250 0.175020 0.014988
-0.024750 0.175023 0.015496
-0.024250 0.175027 0.016257
-0.023750 0.175029 0.016765
-0.019250 0.175066 0.024251
-0.018750 0.175071 0.025266
-0.018250 0.175073 0.025774
-0.017250 0.175081 0.027296
-0.016750 0.175085 0.028311
-0.016250 0.175089 0.029073
-0.015750 0.175093 0.029834
-0.015250 0.175096 0.030468
-0.014750 0.175100 0.031230
-0.014250 0.175102 0.031737
-0.013750 0.175106 0.032499
-0.013250 0.175108 0.033006
-0.012750 0.175111 0.033514
-0.012250 0.175114 0.034148
-0.011750 0.175116 0.034529
-0.011250 0.175119 0.035163
-0.010750 0.175121 0.035671
-0.010250 0.175123 0.036051
-0.009750 0.175125 0.036432
-0.009250 0.175127 0.036813
-0.008750 0.175130 0.037320
-0.008250 0.175131 0.037574
-0.007750 0.175131 0.037574
-0.007250 0.175132 0.037828
-0.006750 0.175133 0.037955
-0.006250 0.175133 0.037955
-0.005750 0.175133 0.037955
-0.005250 0.175131 0.037701
-0.004750 0.175132 0.037828
-0.004250 0.175130 0.037447
-0.003750 0.175128 0.037067
-0.003250 0.175126 0.036686
-0.002750 0.175121 0.035544
-0.002250 0.175118 0.035036
-0.001750 0.175113 0.033894
-0.062000 0.175743 0.061782
-0.061500 0.175734 0.062501
-0.061000 0.175720 0.063701
-0.060500 0.175712 0.064421
-0.060000 0.175705 0.065021
-0.059500 0.175699 0.065501
-0.059000 0.175693 0.065981
-0.058500 0.175688 0.066461
-0.058000 0.175683 0.066821
-0.057500 0.175679 0.067181
-0.057000 0.175675 0.067541
-0.056500 0.175671 0.067901
-0.056000 0.175666 0.068261
-0.055500 0.175661 0.068741
-0.055000 0.175655 0.069220
-0.054500 0.175651 0.069580
-0.054000 0.175644 0.070180
-0.053500 0.175640 0.070540
-0.053000 0.175634 0.071020
-0.052500 0.175628 0.071500
-0.052000 0.175624 0.071860
-0.051500 0.175618 0.072340
-0.051000 0.175614 0.072700
-0.050500 0.175606 0.073420
-0.050000 0.175594 0.074380
-0.049500 0.175580 0.075579
-0.049000 0.175570 0.076419
-0.048500 0.175565 0.076899
-0.048000 0.175559 0.077379
-0.047500 0.175555 0.077739
-0.047000 0.175553 0.077859
-0.046500 0.175552 0.077979
-0.046000 0.175552 0.077979
-0.045500 0.175552 0.077979
-0.045000 0.175552 0.077979
-0.044500 0.175553 0.077859
-0.044000 0.175556 0.077619
-0.043500 0.175558 0.077499
-0.043000 0.175562 0.077139
-0.042500 0.175569 0.076539
-0.042000 0.175575 0.076059
-0.041500 0.175580 0.075579
-0.041000 0.175584 0.075219
-0.040500 0.175590 0.074740
-0.040000 0.175593 0.074500
-0.028500 0.175744 0.010927
-0.028000 0.175748 0.011688
-0.027500 0.175751 0.012449
-0.027000 0.175754 0.013211
-0.026500 0.175757 0.013845
-0.026000 0.175759 0.014353
-0.025500 0.175761 0.014860
-0.025000 0.175764 0.015495
-0.024500 0.175767 0.016129
-0.024000 0.175769 0.016763
-0.023500 0.175773 0.017652
-0.023000 0.175776 0.018413
-0.022500 0.175779 0.019047
-0.021500 0.175785 0.020443
-0.019500 0.175799 0.023742
-0.019000 0.175803 0.024630
-0.018500 0.175806 0.025392
-0.018000 0.175809 0.026026
-0.017500 0.175812 0.026787
-0.017000 0.175816 0.027675
-0.016500 0.175819 0.028437
-0.016000 0.175822 0.029071
-0.015500 0.175825 0.029832
-0.015000 0.175828 0.030467
-0.014500 0.175830 0.030974
-0.014000 0.175833 0.031609
-0.013500 0.175835 0.032116
-0.013000 0.175837 0.032624
-0.012500 0.175839 0.033131
-0.012000 0.175842 0.033639
-0.011500 0.175843 0.034020
-0.011000 0.175846 0.034654
-0.010500 0.175848 0.035035
-0.010000 0.175849 0.035415
-0.009500 0.175851 0.035923
-0.009000 0.175853 0.036177
-0.008500 0.175854 0.036430
-0.008000 0.175854 0.036557
-0.007500 0.175855 0.036811
-0.007000 0.175856 0.036938
-0.006500 0.175855 0.036684
-0.006000 0.175855 0.036811
-0.005500 0.175855 0.036811
-0.005000 0.175854 0.036557
-0.004500 0.175852 0.036050
-0.004000 0.175850 0.035542
-0.003500 0.175847 0.034781
-0.003000 0.175842 0.033639
-0.002500 0.175842 0.033639
-0.002000 0.175841 0.033385
-0.061750 0.176452 0.062020
-0.061250 0.176433 0.063580
-0.060750 0.176425 0.064180
-0.060250 0.176416 0.064900
-0.059750 0.176410 0.065380
-0.059250 0.176403 0.065980
-0.058750 0.176397 0.066460
-0.058250 0.176392 0.066820
-0.057750 0.176386 0.067300
-0.057250 0.176382 0.067659
-0.056750 0.176378 0.068020
-0.056250 0.176372 0.068499
-0.055750 0.176366 0.068979
-0.055250 0.176360 0.069459
-0.054750 0.176355 0.069819
-0.054250 0.176348 0.070419
-0.053750 0.176342 0.070899
-0.053250 0.176336 0.071379
-0.052750 0.176331 0.071739
-0.052250 0.176327 0.072099
-0.051750 0.176319 0.072699
-0.051250 0.176309 0.073539
-0.050750 0.176294 0.074739
-0.050250 0.176284 0.075579
-0.049750 0.176273 0.076418
-0.049250 0.176267 0.076898
-0.048750 0.176263 0.077258
-0.048250 0.176258 0.077618
-0.047750 0.176255 0.077858
-0.047250 0.176255 0.077858
-0.046750 0.176254 0.077978
-0.046250 0.176254 0.077978
-0.045750 0.176257 0.077738
-0.045250 0.176257 0.077738
-0.044750 0.176260 0.077498
-0.044250 0.176263 0.077258
-0.043750 0.176272 0.076539
-0.043250 0.176278 0.076058
-0.042750 0.176282 0.075699
-0.042250 0.176287 0.075339
-0.041750 0.176293 0.074859
-0.041250 0.176298 0.074379
-0.028750 0.176488 0.010925
-0.028250 0.176491 0.011814
-0.027750 0.176494 0.012575
-0.027250 0.176497 0.013209
-0.026750 0.176498 0.013717
-0.026250 0.176501 0.014351
-0.025750 0.176503 0.014986
-0.025250 0.176505 0.015493
-0.024750 0.176507 0.016128
-0.024250 0.176510 0.016889
-0.023750 0.176512 0.017523
-0.023250 0.176515 0.018158
-0.022750 0.176518 0.018919
-0.022250 0.176520 0.019553
-0.021750 0.176522 0.020061
-0.021250 0.176526 0.021076
-0.020250 0.176531 0.022472
-0.019750 0.176534 0.023233
-0.019250 0.176537 0.024121
-0.018750 0.176540 0.024882
-0.018250 0.176542 0.025644
-0.017750 0.176545 0.026278
-0.017250 0.176547 0.027039
-0.016750 0.176550 0.027674
-0.016250 0.176553 0.028435
-0.015750 0.176555 0.029070
-0.015250 0.176557 0.029704
-0.014750 0.176560 0.030338
-0.014250 0.176561 0.030592
-0.013750 0.176563 0.031353
-0.013250 0.176565 0.031734
-0.012750 0.176567 0.032242
-0.012250 0.176569 0.032749
