# This PCD file was generated using the MATLAB® pcwrite function
# from Computer Vision System Toolbox®.
# .PCD v.7 - Point Cloud Data file format
VERSION .7
FIELDS x y z
SIZE 4 4 4
TYPE F F F
COUNT 1 1 1
WIDTH 1704
HEIGHT 1
VIEWPOINT 0 0 0 1 0 0 0
POINTS 1704
DATA ascii
0.433107 0.152141 -0.087202
0.475036 0.143188 -0.166944
0.478490 0.157465 -0.150127
0.447485 0.166739 -0.116537
0.423584 0.126966 -0.108979
0.459143 0.170146 -0.109457
0.441244 0.165330 -0.122546
0.417533 0.123891 -0.106599
0.413541 0.121422 -0.108425
0.480933 0.152093 -0.136047
0.484222 0.207497 -0.109205
0.475103 0.165142 -0.101117
0.378308 0.122280 -0.115658
0.378372 0.125685 -0.125809
0.377817 0.121576 -0.106455
0.485755 0.166487 -0.115275
0.462315 0.148922 -0.142363
0.488962 0.167220 -0.084837
0.488826 0.169234 -0.080360
0.426106 0.221650 -0.071814
0.484008 0.176362 -0.067728
0.489608 0.183192 -0.147869
0.492517 0.180968 -0.123127
0.483555 0.200127 -0.070021
0.489921 0.170214 -0.114126
0.404195 0.118580 -0.112201
0.373733 0.139693 -0.138224
0.495966 0.184136 -0.144643
0.433140 0.139937 -0.099825
0.389360 0.124838 -0.087569
0.459258 0.144404 -0.155180
0.484748 0.156288 -0.133731
0.503232 0.193873 -0.164564
0.464646 0.217784 -0.098057
0.391790 0.119329 -0.117463
0.388993 0.121121 -0.096595
0.494074 0.171533 -0.082593
0.483884 0.151140 -0.138809
0.468048 0.214286 -0.103968
0.370334 0.125207 -0.110184
0.418470 0.124543 -0.117539
0.367506 0.173908 -0.056555
0.364492 0.169982 -0.059571
0.435724 0.154593 -0.126426
0.482032 0.164275 -0.120217
0.483527 0.147250 -0.151493
0.384951 0.127385 -0.132302
0.487398 0.199810 -0.078913
0.368837 0.127726 -0.116550
0.481349 0.142090 -0.153932
0.492201 0.169547 -0.083161
0.469797 0.169921 -0.084730
0.374871 0.122633 -0.108182
0.435313 0.144262 -0.118372
0.437937 0.148922 -0.116730
0.493624 0.178062 -0.117194
0.435218 0.140848 -0.105202
0.491120 0.164487 -0.096830
0.495053 0.168857 -0.095339
0.410019 0.121109 -0.104867
0.484921 0.151780 -0.142630
0.486066 0.156648 -0.141430
0.402885 0.215001 -0.043541
0.399607 0.210163 -0.044920
0.497795 0.189408 -0.139052
0.494937 0.183448 -0.140929
0.386134 0.121864 -0.121828
0.373737 0.135526 -0.135335
0.483820 0.158374 -0.129860
0.477584 0.155626 -0.132837
0.389677 0.201860 -0.049870
0.497529 0.185436 -0.148990
0.419535 0.163030 -0.066706
0.491128 0.200971 -0.105959
0.437413 0.145282 -0.105044
0.482154 0.152481 -0.151879
0.458119 0.224490 -0.089758
0.487349 0.181737 -0.134831
0.477422 0.194924 -0.125424
0.499882 0.189268 -0.147749
0.400969 0.118003 -0.109070
0.382953 0.120068 -0.108296
0.429051 0.147624 -0.086689
0.470746 0.178585 -0.064665
0.409884 0.126345 -0.096652
0.482032 0.148884 -0.139623
0.458634 0.201486 -0.121432
0.495003 0.197309 -0.170529
0.501046 0.191712 -0.094149
0.413981 0.130098 -0.094248
0.381824 0.143687 -0.143147
0.379650 0.128771 -0.132118
0.418057 0.133636 -0.091005
0.488409 0.165057 -0.090105
0.480200 0.173367 -0.071191
0.437159 0.151796 -0.121616
0.427992 0.137817 -0.127016
0.488488 0.162913 -0.093864
0.395389 0.118958 -0.117390
0.350213 0.160868 -0.069460
0.397738 0.131556 -0.079161
0.426157 0.142387 -0.088102
0.381756 0.121041 -0.114706
0.380830 0.122987 -0.120772
0.463520 0.211793 -0.111231
0.482559 0.199334 -0.121147
0.401197 0.159970 -0.144926
0.424840 0.128749 -0.117458
0.429052 0.133015 -0.116544
0.432188 0.139739 -0.120392
0.452193 0.166204 -0.103562
0.439430 0.151403 -0.102419
0.489399 0.173538 -0.118705
0.461111 0.168353 -0.103924
0.402801 0.209500 -0.047518
0.431367 0.142465 -0.125547
0.494473 0.193791 -0.090179
0.427607 0.158113 -0.137099
0.394175 0.207233 -0.047262
0.497958 0.191063 -0.187101
0.447423 0.162148 -0.104464
0.500416 0.179502 -0.090277
0.459772 0.222137 -0.083638
0.444019 0.172690 -0.125691
0.463971 0.217648 -0.101040
0.478241 0.161054 -0.123778
0.413342 0.121348 -0.113056
0.439308 0.156256 -0.093673
0.437246 0.151488 -0.094050
0.434595 0.150050 -0.090734
0.474749 0.183073 -0.063455
0.359766 0.166728 -0.061426
0.485088 0.164310 -0.124574
0.482064 0.159023 -0.127552
0.485918 0.164022 -0.110268
0.400559 0.119566 -0.119301
0.384316 0.131616 -0.136481
0.484983 0.200423 -0.118017
0.479654 0.179671 -0.065069
0.386111 0.136640 -0.141496
0.367815 0.130117 -0.121960
0.443519 0.221555 -0.116151
0.446759 0.224661 -0.112457
0.486262 0.168965 -0.120436
0.486635 0.177099 -0.124462
0.456690 0.203073 -0.068475
0.488541 0.202643 -0.111117
0.397176 0.204947 -0.050522
0.395316 0.200819 -0.054995
0.490287 0.182349 -0.141738
0.386089 0.194084 -0.045405
0.387854 0.186872 -0.049333
0.384109 0.188988 -0.044763
0.385120 0.182370 -0.050247
0.379116 0.178529 -0.052662
0.375124 0.176453 -0.054332
0.371366 0.172384 -0.058137
0.364228 0.162283 -0.062730
0.405286 0.123371 -0.098142
0.438214 0.146990 -0.111806
0.474790 0.166034 -0.106905
0.493957 0.190412 -0.180918
0.480909 0.154362 -0.151518
0.466630 0.167637 -0.091548
0.477415 0.171852 -0.078221
0.481470 0.205812 -0.081779
0.367283 0.133144 -0.127126
0.422275 0.137730 -0.089368
0.478922 0.164492 -0.141839
0.475036 0.162438 -0.145431
0.421106 0.197253 -0.062864
0.421359 0.202106 -0.130611
0.483725 0.170329 -0.077639
0.493173 0.197790 -0.175919
0.429244 0.134842 -0.100921
0.452078 0.173203 -0.120142
0.495609 0.171629 -0.086499
0.494277 0.183132 -0.135516
0.406412 0.214114 -0.047187
0.438485 0.160253 -0.124292
0.376731 0.174191 -0.057068
0.367911 0.167272 -0.060377
0.498242 0.176065 -0.086535
0.487681 0.181044 -0.067320
0.404931 0.164654 -0.144058
0.442855 0.227664 -0.110682
0.438464 0.224861 -0.114703
0.490984 0.181944 -0.136761
0.418174 0.159681 -0.064494
0.412862 0.141100 -0.076333
0.356346 0.133099 -0.099844
0.404359 0.209073 -0.052679
0.400339 0.205212 -0.053592
0.491548 0.181683 -0.128580
0.503231 0.189186 -0.098693
0.495530 0.170264 -0.102035
0.498988 0.175047 -0.099938
0.416022 0.145009 -0.074845
0.396739 0.132577 -0.139872
0.482055 0.203269 -0.075599
0.390923 0.193736 -0.051688
0.441311 0.162852 -0.087962
0.453479 0.175710 -0.083098
0.363170 0.139709 -0.129406
0.440363 0.152285 -0.108333
0.345561 0.154000 -0.083080
0.474549 0.167354 -0.138428
0.476457 0.149590 -0.158847
0.375579 0.157503 -0.144508
0.415369 0.197983 -0.133275
0.502192 0.192894 -0.105667
0.387871 0.118721 -0.110423
0.424912 0.127826 -0.112677
0.413936 0.194750 -0.136816
0.389936 0.187612 -0.051970
0.381943 0.178072 -0.055715
0.373823 0.169415 -0.057849
0.369921 0.163853 -0.058765
0.367136 0.161747 -0.060352
0.484209 0.161792 -0.097152
0.485341 0.171802 -0.074102
0.451114 0.226192 -0.106413
0.343784 0.148630 -0.084166
0.482180 0.139534 -0.157084
0.480874 0.137853 -0.157937
0.428376 0.131281 -0.110862
0.482069 0.180945 -0.128223
0.408020 0.214535 -0.051554
0.393354 0.196332 -0.056215
0.385285 0.180909 -0.054563
0.381330 0.169670 -0.055897
0.377369 0.165622 -0.056143
0.373938 0.161261 -0.057710
0.369667 0.157483 -0.060735
0.372408 0.130572 -0.129198
0.472101 0.212330 -0.090520
0.499376 0.186747 -0.087076
0.374693 0.123191 -0.113003
0.377348 0.123842 -0.119807
0.486770 0.180347 -0.128604
0.404715 0.208985 -0.056548
0.395046 0.193460 -0.061155
0.451837 0.166685 -0.109538
0.417521 0.146714 -0.079404
0.454452 0.169382 -0.110672
0.494078 0.183169 -0.131005
0.390472 0.186955 -0.056727
0.388437 0.181595 -0.058075
0.384900 0.178387 -0.056731
0.385576 0.174606 -0.055990
0.481459 0.183305 -0.133206
0.482632 0.210451 -0.102743
0.411082 0.197213 -0.140789
0.498081 0.196324 -0.178693
0.474761 0.181691 -0.126537
0.486726 0.206421 -0.088060
0.392205 0.130971 -0.138152
0.469077 0.166898 -0.099632
0.431481 0.140009 -0.096121
0.482821 0.187074 -0.150678
0.467283 0.211002 -0.083933
0.495918 0.190491 -0.084944
0.442929 0.158237 -0.106053
0.350889 0.147383 -0.083256
0.346767 0.143597 -0.085403
0.344687 0.139525 -0.087449
0.448188 0.166846 -0.090061
0.482176 0.194321 -0.161763
0.392907 0.122396 -0.093259
0.480137 0.145327 -0.159466
0.454456 0.201786 -0.066451
0.420785 0.126226 -0.118933
0.420738 0.152028 -0.078228
0.435972 0.142450 -0.112958
0.405870 0.208847 -0.060916
0.403705 0.202850 -0.058460
0.400891 0.198303 -0.058718
0.391921 0.188322 -0.062344
0.371494 0.133711 -0.132259
0.473518 0.193538 -0.065587
0.478758 0.213644 -0.097378
0.429093 0.136467 -0.097234
0.419536 0.128134 -0.124646
0.460300 0.143452 -0.150513
0.491812 0.191996 -0.124199
0.478786 0.210802 -0.110927
0.418422 0.123658 -0.111789
0.451144 0.165204 -0.099186
0.449802 0.165163 -0.095177
0.444847 0.160988 -0.096511
0.436186 0.145294 -0.099212
0.460901 0.176433 -0.079710
0.488027 0.184634 -0.153208
0.494870 0.178092 -0.077636
0.387147 0.120185 -0.100679
0.398260 0.118120 -0.107465
0.443855 0.161894 -0.092387
0.487754 0.161532 -0.099535
0.405736 0.204337 -0.060044
0.485596 0.172136 -0.126229
0.392957 0.178229 -0.059842
0.483538 0.185117 -0.065545
0.449871 0.171925 -0.084573
0.467956 0.138215 -0.174599
0.372180 0.148780 -0.142358
0.464353 0.218460 -0.086215
0.408445 0.120854 -0.119291
0.462895 0.220781 -0.092142
0.492034 0.166509 -0.103383
0.495262 0.186292 -0.120855
0.486299 0.162024 -0.104852
0.443368 0.159912 -0.112300
0.498787 0.176993 -0.105381
0.498995 0.197472 -0.163421
0.453075 0.220954 -0.111647
0.390992 0.170845 -0.056571
0.386802 0.167206 -0.055970
0.382790 0.161873 -0.057051
0.377808 0.157914 -0.058807
0.374824 0.153479 -0.061536
0.363688 0.144584 -0.133986
0.351890 0.140786 -0.088014
0.490111 0.173541 -0.074649
0.439670 0.177528 -0.130203
0.416064 0.156617 -0.063279
0.496418 0.187013 -0.133706
0.491106 0.167822 -0.108598
0.498251 0.173334 -0.094312
0.435581 0.140738 -0.108745
0.394576 0.138181 -0.142985
0.408438 0.198040 -0.060727
0.404630 0.194790 -0.060115
0.400589 0.190506 -0.063296
0.396322 0.185786 -0.065506
0.441443 0.155712 -0.102868
0.501619 0.182319 -0.103492
0.433089 0.150130 -0.128551
0.413644 0.125062 -0.124743
0.484324 0.153848 -0.147595
0.438432 0.158530 -0.089471
0.438078 0.149523 -0.098502
0.488596 0.200456 -0.173694
0.477781 0.164874 -0.114958
0.434872 0.145963 -0.094997
0.347656 0.135468 -0.090505
0.432533 0.226693 -0.077295
0.462596 0.140337 -0.171300
0.480383 0.137558 -0.162623
0.450397 0.205594 -0.064053
0.404896 0.220466 -0.080261
0.441277 0.155474 -0.113090
0.501387 0.179913 -0.098070
0.436545 0.164396 -0.128735
0.439286 0.169053 -0.127201
0.481677 0.147672 -0.155829
0.386949 0.163308 -0.055913
0.383100 0.158437 -0.057548
0.380496 0.155688 -0.058460
0.456371 0.173711 -0.085980
0.428791 0.135149 -0.121913
0.373958 0.124969 -0.118202
0.471433 0.214315 -0.096553
0.481214 0.194647 -0.134150
0.457694 0.208892 -0.070330
0.441625 0.157023 -0.098838
0.480671 0.161986 -0.104977
0.454719 0.222239 -0.108303
0.419263 0.127365 -0.100444
0.421890 0.132085 -0.095538
0.481687 0.209453 -0.086892
0.445948 0.167886 -0.085630
0.500698 0.184640 -0.108900
0.482055 0.191042 -0.156522
0.451817 0.184996 -0.127751
0.464135 0.146186 -0.143585
0.495364 0.189842 -0.174537
0.497958 0.179503 -0.110790
0.479525 0.192856 -0.147935
0.414393 0.215234 -0.073043
0.446910 0.161764 -0.099752
0.499431 0.187918 -0.113222
0.465316 0.166973 -0.096328
0.423808 0.134004 -0.128788
0.395290 0.167468 -0.057354
0.391712 0.161254 -0.057276
0.387519 0.157579 -0.057769
0.383807 0.152904 -0.059378
0.381443 0.149693 -0.061791
0.432034 0.145421 -0.091521
0.425779 0.136101 -0.093768
0.429132 0.140550 -0.092660
0.409544 0.213035 -0.073857
0.464633 0.215084 -0.081040
0.422252 0.194362 -0.133995
0.351822 0.137921 -0.091306
0.343591 0.132584 -0.094000
0.367746 0.141520 -0.136541
0.417210 0.211136 -0.068742
0.411632 0.209196 -0.069290
0.464288 0.169752 -0.110377
0.408434 0.137158 -0.077731
0.414781 0.124105 -0.102810
0.412378 0.195370 -0.062261
0.408985 0.190012 -0.061797
0.404550 0.186297 -0.064944
0.400794 0.181880 -0.066668
0.502417 0.186247 -0.094640
0.477450 0.187813 -0.130305
0.423932 0.131528 -0.099056
0.493133 0.179640 -0.074100
0.431032 0.135000 -0.105211
0.387765 0.132525 -0.138748
0.406350 0.121698 -0.101687
0.474133 0.160762 -0.147546
0.416405 0.202834 -0.064883
0.407834 0.123286 -0.125150
0.458546 0.172777 -0.114574
0.494766 0.187338 -0.126666
0.491008 0.196143 -0.149199
0.458354 0.222095 -0.104255
0.503549 0.196640 -0.170943
0.417458 0.128872 -0.097228
0.478827 0.139077 -0.167752
0.454040 0.170966 -0.092754
0.454540 0.189238 -0.125933
0.393213 0.149879 -0.145178
0.485599 0.208851 -0.094011
0.355502 0.136959 -0.093701
0.351917 0.133527 -0.095385
0.347350 0.129794 -0.096715
0.485997 0.159388 -0.138867
0.456765 0.225250 -0.095148
0.497197 0.195568 -0.149581
0.449886 0.176623 -0.125250
0.410734 0.172913 -0.065858
0.445371 0.207297 -0.125539
0.460544 0.211833 -0.113815
0.435011 0.221401 -0.118077
0.413172 0.201839 -0.132041
0.387855 0.149752 -0.061899
0.378220 0.149068 -0.063383
0.375908 0.129408 -0.130326
0.495617 0.172594 -0.106706
0.425144 0.201959 -0.061755
0.457876 0.209245 -0.117418
0.430340 0.218253 -0.121280
0.420937 0.208962 -0.125610
0.415656 0.197723 -0.063542
0.427551 0.131224 -0.106560
0.409308 0.119530 -0.110913
0.452442 0.171520 -0.088975
0.499052 0.194903 -0.097363
0.499767 0.191359 -0.092304
0.471178 0.168797 -0.117671
0.494347 0.193176 -0.136874
0.465998 0.216590 -0.094181
0.481426 0.205051 -0.115684
0.431510 0.193969 -0.132712
0.471423 0.211718 -0.111230
0.396883 0.191243 -0.148240
0.397181 0.187883 -0.148643
0.448603 0.203445 -0.126225
0.397512 0.156089 -0.145333
0.407903 0.170151 -0.143518
0.414998 0.187387 -0.063385
0.410131 0.182400 -0.066237
0.405453 0.178366 -0.067446
0.438830 0.147935 -0.108178
0.439969 0.153753 -0.116186
0.398943 0.163917 -0.058398
0.396499 0.158374 -0.058761
0.392883 0.153056 -0.059426
0.385570 0.145485 -0.064161
0.382686 0.145636 -0.064641
0.465549 0.156736 -0.136484
0.371415 0.124423 -0.106468
0.460132 0.193301 -0.123612
0.420182 0.181467 -0.139290
0.417109 0.204959 -0.128169
0.467011 0.213314 -0.107915
0.469340 0.162962 -0.141302
0.392962 0.183782 -0.149024
0.396073 0.163939 -0.144482
0.417792 0.192651 -0.062804
0.498387 0.174280 -0.090504
0.412505 0.125227 -0.099669
0.457130 0.216190 -0.112880
0.495605 0.187205 -0.078966
0.472332 0.198646 -0.123729
0.359537 0.133594 -0.096169
0.351558 0.129175 -0.100706
0.488167 0.196859 -0.073045
0.420817 0.125003 -0.114294
0.467977 0.201984 -0.121661
0.462941 0.205327 -0.118765
0.454156 0.214433 -0.116308
0.484788 0.199898 -0.179971
0.356566 0.132947 -0.104148
0.481812 0.164408 -0.115342
0.400870 0.161413 -0.058916
0.442210 0.185237 -0.131068
0.409180 0.201988 -0.139846
0.459513 0.140607 -0.164755
0.483127 0.160497 -0.143472
0.483708 0.166536 -0.135762
0.501820 0.194253 -0.185056
0.492260 0.188389 -0.167211
0.434550 0.147143 -0.123422
0.389641 0.180622 -0.148667
0.470397 0.151967 -0.156527
0.479583 0.171013 -0.133044
0.476654 0.201920 -0.120966
0.435331 0.219441 -0.068050
0.411701 0.174009 -0.142570
0.474935 0.173196 -0.130210
0.476215 0.136852 -0.169440
0.402983 0.168439 -0.059576
0.478991 0.187034 -0.065037
0.480508 0.185893 -0.138598
0.466826 0.205310 -0.079085
0.457320 0.143123 -0.160370
0.413857 0.142192 -0.081491
0.424376 0.210780 -0.064663
0.425136 0.214041 -0.123553
0.425018 0.194590 -0.061680
0.422116 0.188819 -0.063625
0.408382 0.166359 -0.060334
0.404515 0.159513 -0.059375
0.400947 0.154409 -0.059964
0.397268 0.149643 -0.060761
0.393038 0.145663 -0.064186
0.389459 0.142452 -0.066190
0.464207 0.151701 -0.139474
0.488227 0.196098 -0.183267
0.495495 0.196337 -0.108650
0.485516 0.193526 -0.171725
0.389276 0.127323 -0.133472
0.484591 0.194809 -0.127619
0.481860 0.139609 -0.160028
0.436968 0.227374 -0.077354
0.433794 0.202185 -0.060505
0.429810 0.197902 -0.060357
0.427370 0.191664 -0.061678
0.424510 0.189083 -0.062573
0.420305 0.183950 -0.064890
0.417535 0.183696 -0.065020
0.414282 0.179285 -0.067886
0.484651 0.196288 -0.176939
0.369444 0.145665 -0.139907
0.405996 0.221994 -0.047497
0.453186 0.192236 -0.126558
0.494521 0.196818 -0.160229
0.467245 0.171305 -0.116792
0.486196 0.162106 -0.136262
0.490591 0.198993 -0.167540
0.408738 0.119660 -0.114574
0.408432 0.161899 -0.059413
0.436156 0.172941 -0.131432
0.483635 0.184813 -0.146112
0.469976 0.200605 -0.076201
0.484638 0.203054 -0.171108
0.486337 0.189918 -0.165230
0.475502 0.205519 -0.081332
0.431694 0.194513 -0.060601
0.413381 0.175412 -0.068925
0.444999 0.197176 -0.061518
0.490122 0.203662 -0.097191
0.472957 0.208803 -0.085551
0.468170 0.168948 -0.111459
0.479049 0.151837 -0.155124
0.502328 0.188591 -0.106916
0.459717 0.201607 -0.070979
0.480813 0.211870 -0.091756
0.468490 0.207784 -0.083181
0.412614 0.160813 -0.060159
0.408913 0.155929 -0.060816
0.405147 0.151392 -0.061999
0.401259 0.147164 -0.063738
0.396666 0.143041 -0.065867
0.394382 0.139426 -0.068568
0.391688 0.139322 -0.069303
0.447242 0.180637 -0.128981
0.483935 0.210233 -0.099964
0.455489 0.169131 -0.102452
0.461501 0.218101 -0.105796
0.438705 0.200268 -0.060186
0.439629 0.196377 -0.060533
0.435315 0.193015 -0.061535
0.431033 0.188270 -0.062477
0.427953 0.184371 -0.064696
0.423650 0.182958 -0.066550
0.423933 0.180134 -0.067124
0.421098 0.177344 -0.067685
0.418031 0.174900 -0.069909
0.503044 0.185922 -0.102113
0.436452 0.154018 -0.090732
0.469084 0.189491 -0.066076
0.490222 0.193047 -0.128980
0.495369 0.196707 -0.155555
0.416585 0.170231 -0.067312
0.461162 0.221424 -0.097823
0.384990 0.132753 -0.076297
0.488478 0.196698 -0.120138
0.416593 0.145516 -0.141605
0.389527 0.136137 -0.072506
0.486217 0.187277 -0.158661
0.500493 0.177550 -0.094200
0.429935 0.145528 -0.130627
0.413798 0.153145 -0.063750
0.409341 0.148651 -0.064754
0.405593 0.144306 -0.066526
0.402007 0.139969 -0.068762
0.397622 0.137050 -0.070338
0.401484 0.185254 -0.147790
0.400729 0.118144 -0.114611
0.496659 0.182057 -0.115490
0.399918 0.136404 -0.141834
0.443639 0.194070 -0.061472
0.440047 0.189882 -0.062758
0.436238 0.185442 -0.064112
0.431867 0.181224 -0.066446
0.427463 0.177646 -0.068912
0.423509 0.171643 -0.070633
0.420139 0.167068 -0.069329
0.393390 0.133432 -0.075730
0.388684 0.131122 -0.079006
0.442270 0.202929 -0.061115
0.412111 0.200341 -0.136158
0.478146 0.140631 -0.156752
0.461235 0.205003 -0.072735
0.490385 0.202353 -0.091701
0.493261 0.194791 -0.142244
0.418751 0.130789 -0.129833
0.397860 0.134825 -0.073003
0.492201 0.197644 -0.161545
0.430802 0.186661 -0.134328
0.481758 0.161555 -0.102596
0.447698 0.200516 -0.062568
0.430069 0.178315 -0.069534
0.390435 0.129924 -0.080776
0.401133 0.132152 -0.138911
0.404686 0.121764 -0.123322
0.413084 0.146380 -0.067701
0.418814 0.159218 -0.141490
0.476123 0.203234 -0.075424
0.451692 0.197363 -0.064684
0.447152 0.191194 -0.064304
0.444299 0.186387 -0.065484
0.439487 0.181793 -0.067442
0.436029 0.178542 -0.069222
0.432969 0.175117 -0.071663
0.430030 0.172492 -0.071422
0.428215 0.168193 -0.072258
0.423682 0.163048 -0.073346
0.416248 0.150400 -0.066811
0.409365 0.142237 -0.069337
0.406336 0.139067 -0.071147
0.406141 0.137205 -0.073871
0.401726 0.134431 -0.076370
0.392770 0.127640 -0.083524
0.499756 0.191990 -0.173349
0.475446 0.149193 -0.146973
0.486375 0.164193 -0.129984
0.460331 0.219183 -0.078572
0.492041 0.192775 -0.186097
0.434961 0.198554 -0.131035
0.449707 0.192712 -0.065636
0.447581 0.163657 -0.111007
0.418867 0.151049 -0.070932
0.415501 0.146363 -0.070732
0.411440 0.141278 -0.072397
0.397683 0.130077 -0.082273
0.467015 0.214804 -0.088520
0.437097 0.207155 -0.061361
0.377047 0.142409 -0.140639
0.385192 0.119863 -0.104308
0.479463 0.163243 -0.109357
0.491444 0.194810 -0.081906
0.482324 0.198600 -0.145889
0.425273 0.206056 -0.128147
0.453381 0.170464 -0.114827
0.456081 0.194411 -0.068763
0.452575 0.189533 -0.068478
0.447143 0.185508 -0.068153
0.443338 0.181048 -0.069474
0.439483 0.176740 -0.071076
0.437056 0.171831 -0.075124
0.430676 0.165628 -0.074887
0.427410 0.160297 -0.076600
0.424549 0.156566 -0.077412
0.405511 0.134767 -0.080282
0.406357 0.132993 -0.083353
0.401531 0.128934 -0.084333
0.397783 0.125740 -0.087426
0.469017 0.194482 -0.125061
0.486183 0.201347 -0.151325
0.487122 0.203048 -0.083940
0.489122 0.196490 -0.186531
0.498627 0.192049 -0.144273
0.420271 0.207657 -0.065012
0.389752 0.123688 -0.127417
0.429251 0.210200 -0.126294
0.449696 0.183905 -0.070017
0.445227 0.178678 -0.072686
0.441742 0.175442 -0.073332
0.434610 0.166974 -0.077265
0.410112 0.137791 -0.082185
0.489205 0.194775 -0.134818
0.460857 0.215770 -0.109709
0.470399 0.150360 -0.158783
0.467902 0.183098 -0.064735
0.457827 0.198305 -0.069389
0.492838 0.199708 -0.100249
0.431919 0.158638 -0.081188
0.427544 0.154701 -0.080449
0.424305 0.149344 -0.082495
0.421298 0.144797 -0.083713
0.417177 0.140426 -0.084862
0.413424 0.137098 -0.086940
0.408516 0.132020 -0.087662
0.404923 0.127902 -0.088653
0.463834 0.197860 -0.073618
0.460791 0.191473 -0.072816
0.457073 0.187247 -0.073293
0.452121 0.182127 -0.073422
0.449146 0.178051 -0.075755
0.444402 0.173224 -0.076686
0.440990 0.168954 -0.080056
0.436279 0.163971 -0.081175
0.402001 0.125288 -0.090776
0.465850 0.175595 -0.121246
0.397510 0.121507 -0.097349
0.367511 0.136616 -0.131959
0.457661 0.180443 -0.079969
0.430256 0.153901 -0.083007
0.427153 0.150001 -0.083765
0.413695 0.134853 -0.089282
0.411205 0.132143 -0.091229
0.406775 0.127626 -0.092516
0.401363 0.124154 -0.093777
0.477127 0.150378 -0.142544
0.465513 0.189267 -0.125210
0.430517 0.202117 -0.130084
0.470637 0.140644 -0.172545
0.398280 0.152703 -0.145326
0.473517 0.189776 -0.126904
0.475091 0.155309 -0.153499
0.464028 0.197593 -0.123164
0.470515 0.157494 -0.150224
0.462068 0.187512 -0.073784
0.460676 0.183647 -0.075853
0.457190 0.180773 -0.078428
0.451881 0.177043 -0.079486
0.447872 0.172478 -0.080524
0.444154 0.168468 -0.082831
0.438367 0.162017 -0.085176
0.423599 0.141707 -0.086623
0.421677 0.139541 -0.087386
0.401872 0.120846 -0.100114
0.385207 0.150624 -0.145601
0.465041 0.184554 -0.068390
0.470456 0.169109 -0.132127
0.440316 0.218540 -0.119233
0.491858 0.196345 -0.086937
0.418619 0.198128 -0.132743
0.434466 0.214630 -0.123680
0.379562 0.184024 -0.046868
0.376136 0.187510 -0.046905
0.472382 0.205406 -0.119118
0.467053 0.145744 -0.155199
0.405295 0.119237 -0.107437
0.461528 0.144235 -0.163060
0.479890 0.177225 -0.127367
0.356066 0.163130 -0.063571
0.392138 0.119305 -0.103735
0.455554 0.204974 -0.121295
0.395684 0.213121 -0.044304
0.375676 0.181467 -0.049635
0.371352 0.178659 -0.052382
0.465364 0.177502 -0.072240
0.473975 0.167912 -0.092180
0.353408 0.160237 -0.066269
0.460420 0.169839 -0.088998
0.475098 0.138607 -0.164245
0.480070 0.195280 -0.153642
0.384222 0.122489 -0.092969
0.473009 0.164146 -0.121880
0.360690 0.173525 -0.058395
0.468090 0.193370 -0.068288
0.463395 0.170469 -0.084954
0.388502 0.204729 -0.048775
0.397956 0.180675 -0.148680
0.471771 0.138276 -0.167292
0.347542 0.159343 -0.077206
0.452584 0.206946 -0.122227
0.400941 0.119198 -0.104092
0.479334 0.165573 -0.093800
0.463008 0.142138 -0.158021
0.471766 0.148241 -0.148719
0.360295 0.159239 -0.066244
0.356467 0.157834 -0.067881
0.355637 0.156094 -0.070520
0.352759 0.154275 -0.074455
0.380291 0.121372 -0.101151
0.350195 0.153730 -0.078125
0.467285 0.141734 -0.165519
0.467746 0.176724 -0.068078
0.437388 0.218082 -0.120230
0.483548 0.167241 -0.086962
0.468850 0.161658 -0.128685
0.475955 0.145399 -0.152104
0.471759 0.142930 -0.158245
0.466039 0.172165 -0.080746
0.479088 0.172206 -0.074161
0.452341 0.213106 -0.118208
0.476488 0.158771 -0.128791
0.461871 0.167603 -0.098649
0.364712 0.149345 -0.137669
0.349297 0.152212 -0.081329
0.482018 0.169393 -0.081731
0.448145 0.211303 -0.121896
0.340402 0.148196 -0.086327
0.442213 0.226805 -0.078475
0.471826 0.173867 -0.069734
0.474147 0.158526 -0.127058
0.472639 0.156856 -0.129444
0.457655 0.176008 -0.082516
0.474134 0.169687 -0.087064
0.338150 0.145667 -0.089748
0.334218 0.143339 -0.096843
0.463633 0.139090 -0.166522
0.474220 0.137925 -0.173676
0.395561 0.119662 -0.100885
0.470967 0.173272 -0.074875
0.340735 0.140321 -0.089199
0.337430 0.141091 -0.092311
0.338907 0.137270 -0.093572
0.467865 0.141285 -0.161469
0.391566 0.118421 -0.108421
0.476925 0.164492 -0.097838
0.478586 0.170264 -0.085360
0.462466 0.146362 -0.148166
0.475991 0.140109 -0.160382
0.365357 0.155394 -0.065374
0.470024 0.172196 -0.079918
0.335036 0.139131 -0.097461
0.411045 0.150557 -0.145095
0.467717 0.150707 -0.146531
0.475891 0.154033 -0.137935
0.468867 0.154390 -0.133327
0.467860 0.149060 -0.137396
0.467859 0.148438 -0.141875
0.362246 0.151134 -0.069549
0.358952 0.151790 -0.072869
0.357531 0.149296 -0.075712
0.354448 0.147263 -0.079302
0.397820 0.123268 -0.092687
0.335555 0.135693 -0.100363
0.463557 0.182254 -0.071085
0.472506 0.152162 -0.139874
0.386760 0.165477 -0.146869
0.459246 0.173745 -0.083144
0.470392 0.168516 -0.088353
0.469688 0.173097 -0.123711
0.469382 0.165201 -0.125840
0.480987 0.142989 -0.149016
0.380616 0.139678 -0.141565
0.368537 0.153595 -0.063916
0.338638 0.134076 -0.096601
0.359545 0.144640 -0.077369
0.338773 0.131243 -0.102428
0.428429 0.226188 -0.077242
0.505582 0.195412 -0.179249
0.371145 0.150285 -0.065719
0.366096 0.146793 -0.070172
0.363283 0.144655 -0.074488
0.357838 0.142142 -0.080587
0.354864 0.141988 -0.084346
0.383050 0.121277 -0.097366
0.481852 0.194886 -0.065670
0.341004 0.131052 -0.098532
0.387480 0.123010 -0.091035
0.468388 0.145731 -0.152122
0.471521 0.166955 -0.094938
0.476581 0.164807 -0.118246
0.477479 0.169731 -0.089219
0.470462 0.151246 -0.135102
0.475399 0.171557 -0.082116
0.380354 0.122145 -0.096229
0.489207 0.198351 -0.155055
0.357257 0.137259 -0.089324
0.479622 0.189779 -0.142808
0.375507 0.145852 -0.067318
0.370882 0.143430 -0.072300
0.367420 0.141003 -0.076722
0.364808 0.139280 -0.079844
0.362059 0.138458 -0.081918
0.359896 0.136728 -0.085878
0.345822 0.127639 -0.101109
0.342990 0.127718 -0.105232
0.460213 0.140344 -0.159979
0.483572 0.163710 -0.091810
0.373912 0.142938 -0.070924
0.467138 0.150245 -0.136667
0.393797 0.123954 -0.089897
0.466627 0.158186 -0.133133
0.380549 0.142621 -0.067984
0.376844 0.139632 -0.072210
0.374155 0.139120 -0.074861
0.371840 0.137973 -0.078680
0.367239 0.135010 -0.083986
0.364082 0.133687 -0.088140
0.361517 0.133340 -0.092436
0.347344 0.126473 -0.107994
0.422328 0.214671 -0.068047
0.476593 0.213046 -0.090770
0.366213 0.152615 -0.139771
0.474517 0.213306 -0.108463
0.479450 0.144592 -0.148498
0.463822 0.143582 -0.152977
0.463533 0.177921 -0.076856
0.370386 0.135294 -0.082371
0.495288 0.192486 -0.117449
0.503691 0.197591 -0.176603
0.420519 0.219162 -0.072001
0.427125 0.182843 -0.136266
0.444051 0.219538 -0.069092
0.403959 0.139242 -0.142914
0.384486 0.139250 -0.069380
0.380359 0.136078 -0.073705
0.375993 0.133887 -0.079391
0.370756 0.131395 -0.085898
0.367842 0.130460 -0.090233
0.365792 0.130060 -0.094443
0.364574 0.129821 -0.098006
0.362460 0.130357 -0.101631
0.445807 0.189845 -0.130297
0.360887 0.130998 -0.106754
0.468321 0.167756 -0.105350
0.412816 0.165918 -0.143942
0.470897 0.168276 -0.120350
0.373896 0.131299 -0.083379
0.469389 0.169221 -0.124937
0.414860 0.178055 -0.140754
0.358129 0.133385 -0.111840
0.479554 0.167643 -0.090415
0.380362 0.130280 -0.081854
0.377758 0.128828 -0.085435
0.375203 0.127591 -0.088731
0.372926 0.127145 -0.092407
0.492224 0.193319 -0.120746
0.432449 0.229021 -0.081951
0.370324 0.126458 -0.097196
0.369183 0.126526 -0.099632
0.367265 0.126923 -0.103496
0.365353 0.128153 -0.108978
0.476574 0.190281 -0.064457
0.454559 0.226121 -0.101566
0.466439 0.147658 -0.160269
0.430084 0.223742 -0.073581
0.385119 0.127571 -0.084043
0.382094 0.125822 -0.087612
0.379442 0.124345 -0.090911
0.377023 0.124090 -0.094865
0.374730 0.123919 -0.099068
0.372728 0.124237 -0.102639
0.409644 0.161036 -0.145322
0.481417 0.196341 -0.139789
0.480568 0.197572 -0.123242
0.430514 0.179461 -0.135071
0.471389 0.214597 -0.101386
0.466179 0.142976 -0.169972
0.461481 0.149697 -0.146340
0.458372 0.142094 -0.158288
0.460095 0.141874 -0.168212
0.490987 0.196658 -0.115853
0.342631 0.181769 -0.105442
0.343233 0.184968 -0.111057
0.343117 0.187323 -0.114719
0.343860 0.191593 -0.114989
0.347974 0.163251 -0.073640
0.334235 0.161579 -0.101271
0.334287 0.163002 -0.107260
0.343225 0.179761 -0.108324
0.343426 0.188565 -0.117199
0.346136 0.191422 -0.121956
0.388600 0.155069 -0.146653
0.332893 0.156012 -0.103002
0.333040 0.158840 -0.107262
0.335708 0.165298 -0.110956
0.463317 0.172679 -0.115545
0.344590 0.181110 -0.113707
0.344728 0.183892 -0.117758
0.345368 0.186837 -0.122104
0.476856 0.200457 -0.069261
0.423848 0.186293 -0.137250
0.332821 0.150082 -0.099973
0.331993 0.147908 -0.107226
0.332032 0.153265 -0.106515
0.332937 0.156424 -0.110051
0.384565 0.147321 -0.144760
0.341476 0.175021 -0.109141
0.477410 0.213990 -0.099956
0.489517 0.190724 -0.173704
0.465630 0.200961 -0.076166
0.332320 0.145239 -0.102976
0.332537 0.151647 -0.112580
0.436733 0.180693 -0.132429
0.345000 0.174200 -0.116774
0.405169 0.189280 -0.146249
0.480433 0.159390 -0.146972
0.488113 0.199834 -0.159220
0.335402 0.157202 -0.116761
0.345348 0.177989 -0.115432
0.347896 0.183251 -0.125428
0.373994 0.234071 -0.115810
0.427876 0.217913 -0.068379
0.487595 0.196977 -0.139972
0.487259 0.201642 -0.114068
0.332905 0.141393 -0.102221
0.345615 0.176348 -0.121252
0.346275 0.181071 -0.120890
0.376714 0.147259 -0.142714
0.348431 0.137712 -0.121595
0.338928 0.146157 -0.122410
0.421716 0.203662 -0.062925
0.482611 0.200004 -0.173084
0.462030 0.177900 -0.121388
0.427586 0.190502 -0.134420
0.482161 0.198063 -0.167306
0.467430 0.163620 -0.134653
0.333465 0.138717 -0.105753
0.333201 0.140807 -0.110856
0.333045 0.147779 -0.115256
0.335440 0.150342 -0.119121
0.337380 0.154689 -0.120232
0.342918 0.167398 -0.116565
0.414623 0.155939 -0.144060
0.411940 0.181272 -0.140125
0.488165 0.192770 -0.178851
0.333823 0.144056 -0.115695
0.345860 0.165913 -0.119868
0.346524 0.173548 -0.124684
0.346922 0.178100 -0.126166
0.422215 0.163616 -0.140076
0.425627 0.168522 -0.138278
0.478098 0.182933 -0.128173
0.404976 0.134867 -0.140311
0.377174 0.236955 -0.111248
0.345947 0.170478 -0.120409
0.391806 0.134848 -0.141437
0.432334 0.169628 -0.133757
0.428934 0.172636 -0.136055
0.360578 0.211579 -0.119278
0.445408 0.199673 -0.128631
0.409376 0.134589 -0.138779
0.400358 0.247071 -0.080859
0.415744 0.163092 -0.142799
0.348038 0.169243 -0.125093
0.349214 0.175507 -0.129256
0.428403 0.165050 -0.135793
0.390087 0.144343 -0.144691
0.352472 0.142256 -0.120748
0.403983 0.172952 -0.142715
0.439988 0.213352 -0.064017
0.336366 0.133734 -0.107936
0.336018 0.136456 -0.113922
0.336808 0.140718 -0.118786
0.430409 0.162030 -0.134089
0.398553 0.145101 -0.144968
0.348219 0.163597 -0.124157
0.372233 0.162920 -0.143871
0.438050 0.187751 -0.132349
0.442287 0.223528 -0.073571
0.372184 0.225605 -0.118213
0.348764 0.158983 -0.124057
0.350369 0.165468 -0.128089
0.351017 0.181253 -0.130419
0.408535 0.193586 -0.144001
0.477067 0.197186 -0.065866
0.380357 0.192593 -0.045334
0.439196 0.202364 -0.128984
0.353367 0.173294 -0.132774
0.390595 0.168950 -0.147641
0.433845 0.166991 -0.132256
0.438399 0.221561 -0.117108
0.455219 0.226190 -0.098974
0.477255 0.210192 -0.086064
0.488169 0.205966 -0.103786
0.346348 0.156275 -0.121247
0.351702 0.169622 -0.129730
0.380407 0.153675 -0.145228
0.495307 0.195983 -0.183492
0.407387 0.147009 -0.145212
0.431460 0.212880 -0.063857
0.341460 0.128992 -0.111092
0.339658 0.130687 -0.112230
0.340488 0.132485 -0.116559
0.341109 0.137382 -0.120906
0.457992 0.219249 -0.109055
0.468589 0.183426 -0.125778
0.353311 0.161876 -0.130860
0.352773 0.167767 -0.131528
0.408332 0.138925 -0.141860
0.441124 0.194596 -0.130324
0.348522 0.147487 -0.121942
0.399284 0.218315 -0.043207
0.436219 0.215984 -0.065073
0.423249 0.224799 -0.076345
0.466059 0.180243 -0.124130
0.351040 0.152189 -0.123549
0.351823 0.155872 -0.127481
0.344168 0.143706 -0.123280
0.439748 0.219517 -0.068503
0.493617 0.195855 -0.111800
0.355315 0.165417 -0.133579
0.357911 0.170061 -0.135278
0.372447 0.152765 -0.142945
0.486910 0.195168 -0.123367
0.401644 0.153696 -0.146003
0.424125 0.153467 -0.138664
0.387185 0.196967 -0.046913
0.379001 0.164390 -0.145925
0.347051 0.127742 -0.113108
0.346045 0.131028 -0.118237
0.346345 0.134694 -0.121334
0.353945 0.157712 -0.130840
0.491470 0.194150 -0.188774
0.485044 0.202250 -0.165587
0.487893 0.206595 -0.102064
0.481580 0.200054 -0.151796
0.430660 0.218168 -0.067718
0.487202 0.199200 -0.145891
0.355151 0.146140 -0.124931
0.353914 0.148772 -0.125571
0.357749 0.158919 -0.133962
0.443082 0.176396 -0.128515
0.355802 0.151464 -0.129997
0.357110 0.155459 -0.132492
0.359727 0.162695 -0.136063
0.361352 0.165832 -0.138091
0.408312 0.176535 -0.141849
0.376477 0.229634 -0.117427
0.471495 0.197712 -0.069619
0.412069 0.141611 -0.142023
0.465497 0.193986 -0.071461
0.488826 0.198524 -0.152913
0.382258 0.167527 -0.147275
0.491777 0.191830 -0.076030
0.358462 0.139019 -0.122816
0.406371 0.215347 -0.078705
0.443295 0.181593 -0.130353
0.358262 0.135737 -0.117194
0.358934 0.142799 -0.127392
0.360053 0.147695 -0.131378
0.361430 0.152407 -0.134207
0.362633 0.154849 -0.136240
0.363829 0.158852 -0.138751
0.365143 0.162987 -0.140406
0.427595 0.208832 -0.062799
0.402191 0.175781 -0.144805
0.426494 0.197998 -0.131766
0.482356 0.202140 -0.157542
0.477873 0.144692 -0.162893
0.393478 0.175687 -0.149025
0.498530 0.193755 -0.095031
0.461063 0.220954 -0.100810
0.420335 0.149232 -0.140191
0.492716 0.186267 -0.160558
0.364309 0.130330 -0.114546
0.363350 0.132800 -0.119925
0.363007 0.136084 -0.124984
0.367855 0.155094 -0.140838
0.480667 0.193445 -0.128095
0.386034 0.227904 -0.109813
0.484793 0.195306 -0.132429
0.498728 0.190280 -0.181940
0.502211 0.191668 -0.180473
0.503151 0.192092 -0.175600
0.418377 0.149250 -0.072681
0.505667 0.195010 -0.174191
0.499572 0.193490 -0.110301
0.497460 0.192693 -0.113580
0.458036 0.223743 -0.100021
0.499421 0.189821 -0.166963
0.495982 0.188800 -0.168178
0.476111 0.214347 -0.094661
0.396981 0.130198 -0.137839
0.498027 0.196281 -0.103177
0.350870 0.133393 -0.118385
0.393165 0.127075 -0.133923
0.397652 0.126799 -0.133816
0.486325 0.168040 -0.128863
0.402076 0.128380 -0.134935
0.482041 0.202863 -0.163438
0.353581 0.133291 -0.115303
0.354214 0.136553 -0.116766
0.406017 0.129472 -0.135134
0.497216 0.186811 -0.159816
0.499646 0.188381 -0.160133
0.494788 0.190175 -0.131620
0.353155 0.130446 -0.112506
0.393428 0.123939 -0.128545
0.411233 0.130608 -0.134561
0.464000 0.168331 -0.105877
0.501900 0.191019 -0.159248
0.398736 0.123993 -0.129034
0.415381 0.133728 -0.135861
0.498102 0.196651 -0.100225
0.402552 0.125823 -0.131534
0.418541 0.133926 -0.133959
0.463994 0.211461 -0.077429
0.492729 0.184626 -0.154601
0.497883 0.186284 -0.154447
0.501437 0.195600 -0.156731
0.383713 0.158091 -0.145881
0.406713 0.125788 -0.130094
0.421944 0.136982 -0.133970
0.499476 0.187412 -0.157134
0.501068 0.191425 -0.152846
0.352656 0.128665 -0.106287
0.412838 0.127577 -0.129618
0.450775 0.220331 -0.114205
0.455586 0.217730 -0.073027
0.394261 0.121331 -0.123209
0.399608 0.121728 -0.124363
0.426496 0.140969 -0.132206
0.415164 0.165843 -0.062866
0.493844 0.183742 -0.149779
0.497137 0.188385 -0.117509
0.399293 0.235418 -0.067335
0.399026 0.231840 -0.063510
0.400632 0.230300 -0.057378
0.404271 0.227561 -0.058959
0.402280 0.228207 -0.051939
0.402572 0.224743 -0.046539
0.459954 0.215060 -0.074601
0.418750 0.190058 -0.136732
0.402061 0.242527 -0.071345
0.405243 0.239231 -0.073137
0.401670 0.238177 -0.068397
0.446057 0.211030 -0.063867
0.448249 0.214126 -0.066012
0.404849 0.243583 -0.078165
0.400566 0.228739 -0.063242
0.406493 0.225420 -0.054083
0.405018 0.217715 -0.044671
0.445071 0.207346 -0.062549
0.491017 0.182153 -0.070319
0.459176 0.212257 -0.072532
0.497381 0.179097 -0.082123
0.433298 0.176389 -0.133971
0.403596 0.237337 -0.070209
0.402731 0.232264 -0.069523
0.400685 0.226000 -0.066557
0.493549 0.185226 -0.074372
0.390226 0.202202 -0.051534
0.410903 0.169098 -0.062604
0.405563 0.156643 -0.146135
0.408216 0.218588 -0.050390
0.487029 0.190917 -0.068159
0.392894 0.159003 -0.146159
0.452110 0.211208 -0.066976
0.407803 0.222509 -0.055850
0.476528 0.208507 -0.115009
0.391681 0.199426 -0.052700
0.389054 0.191628 -0.048079
0.453342 0.215684 -0.070450
0.406282 0.239880 -0.079971
0.406900 0.237961 -0.076048
0.405680 0.232608 -0.076752
0.403875 0.230985 -0.072374
0.402111 0.226081 -0.073336
0.490448 0.187409 -0.070783
0.462564 0.208421 -0.074633
0.448904 0.218789 -0.069896
0.420394 0.156843 -0.068970
0.498047 0.183921 -0.082152
0.403803 0.227375 -0.077985
0.400540 0.220626 -0.074169
0.455373 0.221554 -0.076492
0.486331 0.160976 -0.134090
0.407389 0.216360 -0.057175
0.405578 0.223404 -0.081974
0.501036 0.183494 -0.089843
0.392317 0.191203 -0.056859
0.472400 0.186289 -0.063718
0.421734 0.157179 -0.073288
0.402616 0.217147 -0.077031
0.386645 0.174674 -0.148706
0.391637 0.184127 -0.061689
0.404470 0.214096 -0.072926
0.405963 0.212609 -0.066345
0.410825 0.204623 -0.064674
0.409672 0.201235 -0.062089
0.394787 0.181583 -0.062952
0.467068 0.208430 -0.116248
0.393730 0.172847 -0.057552
0.418623 0.194165 -0.134473
0.398174 0.179460 -0.064349
0.398886 0.175588 -0.062226
0.397108 0.171678 -0.058912
0.473869 0.149069 -0.160448
0.466292 0.153430 -0.151794
0.482517 0.171921 -0.130260
0.469863 0.187422 -0.126505
0.429446 0.205105 -0.061414
0.402608 0.198859 -0.145783
0.442315 0.206148 -0.126653
0.471850 0.176120 -0.126289
0.405066 0.175774 -0.065447
0.403325 0.173454 -0.062802
0.458377 0.186507 -0.123780
0.478638 0.203087 -0.118997
0.455769 0.196486 -0.124130
0.435536 0.192021 -0.132599
0.470490 0.146401 -0.163888
0.408476 0.218923 -0.081984
0.379967 0.238034 -0.108035
0.381526 0.237244 -0.104158
0.384267 0.234912 -0.106869
0.382972 0.235894 -0.098925
0.387226 0.232879 -0.099770
0.357699 0.213164 -0.116766
0.399885 0.168385 -0.143451
0.403023 0.243909 -0.082873
0.490903 0.199151 -0.087144
0.381818 0.236751 -0.109584
0.370017 0.159890 -0.142216
0.492892 0.197256 -0.181080
0.490248 0.197326 -0.082310
0.402312 0.242045 -0.086632
0.485806 0.202107 -0.156018
0.380368 0.233385 -0.113609
0.402921 0.237979 -0.086729
0.403730 0.224301 -0.062821
0.482943 0.206623 -0.112569
0.391717 0.234923 -0.095620
0.401724 0.222150 -0.066117
0.386824 0.230956 -0.106487
0.388815 0.228627 -0.102436
0.392325 0.227028 -0.099434
0.405709 0.235040 -0.082111
0.401044 0.218219 -0.069909
0.404484 0.219155 -0.063022
0.406513 0.222562 -0.059628
0.381122 0.225653 -0.116578
0.383569 0.228837 -0.113671
0.434037 0.183397 -0.133940
0.401506 0.232213 -0.090067
0.502560 0.192235 -0.098836
0.388516 0.224517 -0.105195
0.416664 0.151307 -0.142909
0.402402 0.150343 -0.145749
0.396977 0.230807 -0.095114
0.404026 0.230899 -0.084419
0.483948 0.197719 -0.140971
0.498076 0.197008 -0.168508
0.405578 0.226760 -0.086123
0.403920 0.215494 -0.065190
0.422772 0.171267 -0.139317
0.384175 0.222058 -0.112658
0.383235 0.161500 -0.146117
0.387028 0.161574 -0.145988
0.392443 0.152310 -0.145780
0.386740 0.216364 -0.109124
0.388025 0.220463 -0.104877
0.392101 0.219525 -0.103543
0.416463 0.169958 -0.142417
0.400273 0.227201 -0.097144
0.404670 0.227306 -0.092337
0.384942 0.216654 -0.115628
0.384307 0.218877 -0.112123
0.385435 0.140954 -0.143586
0.382118 0.216575 -0.120938
0.453041 0.199680 -0.125197
0.420440 0.173734 -0.139898
0.450080 0.194774 -0.128002
0.405293 0.224365 -0.100973
0.408933 0.225018 -0.094610
0.411690 0.224118 -0.088866
0.411757 0.221799 -0.083480
0.402958 0.144209 -0.145066
0.424562 0.178252 -0.138233
0.382886 0.214689 -0.126039
0.387223 0.214671 -0.123817
0.389299 0.213970 -0.118039
0.392377 0.212361 -0.111436
0.414754 0.149372 -0.143768
0.386165 0.214147 -0.127727
0.391749 0.212779 -0.116378
0.418362 0.228654 -0.094080
0.423380 0.230234 -0.093009
0.422695 0.229167 -0.086983
0.437987 0.224786 -0.074172
0.486452 0.201783 -0.177810
0.386362 0.211143 -0.133957
0.390389 0.212370 -0.130782
0.392169 0.213205 -0.125339
0.393262 0.212392 -0.120195
0.396215 0.211282 -0.118691
0.396506 0.211255 -0.114027
0.364633 0.222394 -0.115254
0.427873 0.229044 -0.082678
0.408693 0.142639 -0.143601
0.432070 0.231000 -0.088183
0.428488 0.230486 -0.086361
0.395102 0.212371 -0.123903
0.426304 0.230581 -0.095458
0.431925 0.232304 -0.094417
0.436066 0.229629 -0.081883
0.501969 0.193965 -0.102809
0.395102 0.211301 -0.133538
0.396834 0.211637 -0.128498
0.399626 0.210753 -0.126761
0.400427 0.210036 -0.121182
0.402859 0.209803 -0.117659
0.395281 0.239633 -0.091882
0.426110 0.230534 -0.100166
0.436462 0.231432 -0.086898
0.414409 0.137064 -0.138555
0.431147 0.232443 -0.099424
0.440145 0.231763 -0.089588
0.490766 0.202480 -0.099017
0.396190 0.172113 -0.147000
0.434834 0.232028 -0.101358
0.435483 0.233169 -0.097109
0.438959 0.232505 -0.095357
0.441925 0.229517 -0.083575
0.406604 0.154041 -0.146050
0.398453 0.171725 -0.145327
0.399993 0.209614 -0.136579
0.404280 0.209320 -0.128665
0.405804 0.208185 -0.123195
0.378571 0.160365 -0.145490
0.403152 0.209614 -0.133949
0.429957 0.230206 -0.107757
0.447335 0.228874 -0.084951
0.448322 0.226396 -0.079670
0.411636 0.189666 -0.139541
0.426840 0.175875 -0.137558
0.437817 0.229953 -0.108867
0.438837 0.231057 -0.104111
0.441685 0.231269 -0.101256
0.443861 0.231453 -0.097023
0.445590 0.230423 -0.091333
0.450195 0.222925 -0.075674
0.448441 0.222153 -0.073913
0.344390 0.139082 -0.122773
0.409393 0.205783 -0.131195
0.411731 0.205775 -0.126744
0.448640 0.230130 -0.091401
0.405359 0.206101 -0.139316
0.407034 0.206642 -0.135488
0.491903 0.197854 -0.111685
0.445067 0.228328 -0.107228
0.446970 0.228702 -0.104528
0.449324 0.229750 -0.099004
0.450661 0.229365 -0.096699
0.452576 0.228777 -0.091890
0.453568 0.227350 -0.086802
0.454446 0.224734 -0.081485
0.395897 0.245455 -0.087682
0.386309 0.238600 -0.095389
0.377305 0.220938 -0.118935
0.409151 0.183957 -0.141279
0.415772 0.186320 -0.138353
0.374550 0.166699 -0.144779
0.390269 0.172703 -0.148975
0.399709 0.194378 -0.147712
0.418878 0.166856 -0.140995
0.393570 0.141892 -0.144130
0.364073 0.215905 -0.118831
0.372190 0.232000 -0.112684
0.368474 0.227277 -0.114322
0.405448 0.179561 -0.143581
0.425977 0.162960 -0.138060
0.373859 0.143897 -0.140481
0.397921 0.235334 -0.092366
0.412218 0.186750 -0.138525
0.367603 0.220739 -0.118687
0.391296 0.242434 -0.089553
0.435582 0.207217 -0.128118
0.395269 0.167672 -0.145128
0.433681 0.158728 -0.130662
0.376769 0.150878 -0.144083
0.355758 0.179745 -0.135245
0.409584 0.186832 -0.141544
0.343046 0.152094 -0.122709
0.392187 0.193839 -0.146893
0.398750 0.242303 -0.089043
0.349744 0.197526 -0.121769
0.367759 0.165725 -0.142068
0.406626 0.198878 -0.144497
0.387333 0.238142 -0.092446
0.360648 0.176295 -0.137994
0.461390 0.182390 -0.123579
0.361516 0.217693 -0.116001
0.435972 0.157110 -0.127072
0.456202 0.180175 -0.122550
0.430944 0.154893 -0.133563
0.430962 0.151494 -0.132455
0.428333 0.148316 -0.134117
0.424616 0.144093 -0.135854
0.420420 0.139673 -0.137056
0.463883 0.187000 -0.124957
0.453991 0.181462 -0.125185
0.427016 0.150211 -0.136141
0.423133 0.145752 -0.137588
0.417880 0.141184 -0.139308
0.459721 0.189064 -0.123622
0.347661 0.198867 -0.117834
0.350603 0.202918 -0.116040
0.354103 0.207511 -0.115603
0.344646 0.194222 -0.118544
0.352103 0.201100 -0.121236
0.353986 0.203483 -0.120954
0.356824 0.206963 -0.120316
0.439500 0.210545 -0.125046
0.475325 0.169902 -0.134943
0.395697 0.244278 -0.082836
0.443837 0.214486 -0.121371
0.448088 0.218008 -0.117145
0.466540 0.158748 -0.143638
0.336366 0.168719 -0.104616
0.338520 0.170579 -0.109310
0.349832 0.189128 -0.126413
0.352473 0.195627 -0.124218
0.357835 0.199414 -0.125794
0.361224 0.204419 -0.124557
0.365172 0.209137 -0.123786
0.368288 0.213199 -0.121932
0.373660 0.217054 -0.121326
0.340601 0.167985 -0.114808
0.467130 0.157650 -0.147352
0.336986 0.162734 -0.114756
0.352415 0.189584 -0.128202
0.354923 0.193976 -0.127562
0.433886 0.223253 -0.072436
0.358806 0.193022 -0.132013
0.361557 0.198054 -0.130731
0.363137 0.202584 -0.129361
0.366507 0.202384 -0.131105
0.369245 0.207591 -0.129470
0.373078 0.211301 -0.128270
0.372384 0.213097 -0.125550
0.376795 0.214935 -0.124501
0.341603 0.160054 -0.120183
0.355285 0.187606 -0.132148
0.338689 0.160345 -0.119020
0.352921 0.182928 -0.132673
0.378084 0.213701 -0.127097
0.389242 0.214969 -0.104992
0.397463 0.223680 -0.101440
0.462553 0.148939 -0.153692
0.339700 0.156010 -0.121445
0.361669 0.193088 -0.133940
0.364523 0.196446 -0.132994
0.370248 0.200108 -0.134777
0.374019 0.204976 -0.134045
0.378164 0.209426 -0.133467
0.381588 0.212450 -0.130677
0.360049 0.185778 -0.135596
0.362996 0.188439 -0.135823
0.364856 0.190881 -0.135652
0.367678 0.194826 -0.135918
0.393133 0.212652 -0.107826
0.396783 0.216338 -0.106480
0.401005 0.221562 -0.104565
0.379020 0.202584 -0.137970
0.401234 0.219475 -0.106615
0.364211 0.181662 -0.138943
0.368574 0.187370 -0.139193
0.371225 0.192063 -0.139025
0.375579 0.197634 -0.138817
0.382551 0.206244 -0.138176
0.396966 0.213641 -0.108719
0.409748 0.222658 -0.103821
0.400855 0.213342 -0.111646
0.405338 0.218402 -0.109584
0.414217 0.226071 -0.096248
0.467143 0.210239 -0.114008
0.386312 0.208719 -0.137894
0.413998 0.224876 -0.100748
0.417930 0.227630 -0.099569
0.363452 0.168995 -0.139799
0.364832 0.173162 -0.140744
0.367485 0.177724 -0.141578
0.369541 0.180778 -0.142061
0.372388 0.184591 -0.141990
0.376611 0.189751 -0.142215
0.379537 0.194343 -0.141572
0.381508 0.198735 -0.140659
0.384688 0.199782 -0.141957
0.386672 0.204040 -0.141189
0.390475 0.207952 -0.139690
0.392123 0.210484 -0.136544
0.417512 0.226670 -0.103828
0.405172 0.211830 -0.116042
0.409239 0.216352 -0.113990
0.413577 0.221129 -0.110211
0.418307 0.225832 -0.108755
0.421796 0.228905 -0.102389
0.394458 0.209813 -0.137894
0.422142 0.228277 -0.107164
0.370117 0.169632 -0.142794
0.372633 0.174509 -0.143589
0.373925 0.177434 -0.143797
0.376336 0.181534 -0.144809
0.380330 0.187229 -0.145002
0.383016 0.190596 -0.144774
0.384860 0.193132 -0.144825
0.388090 0.196874 -0.144478
0.390945 0.200764 -0.143798
0.395386 0.205893 -0.142050
0.397733 0.207962 -0.140020
0.408767 0.208836 -0.120415
0.408695 0.210929 -0.118367
0.412612 0.213129 -0.118752
0.413078 0.215718 -0.115935
0.416483 0.219502 -0.114750
0.420999 0.224739 -0.113029
0.425427 0.227674 -0.111243
0.430027 0.231389 -0.103154
0.401623 0.220384 -0.042816
0.418506 0.219313 -0.116788
0.422362 0.223867 -0.114898
0.377805 0.174993 -0.145748
0.381051 0.178213 -0.146637
0.384949 0.184069 -0.147024
0.386181 0.188504 -0.146731
0.388817 0.189315 -0.147732
0.395033 0.197849 -0.146380
0.399488 0.202212 -0.144588
0.401852 0.204937 -0.142445
0.433507 0.231193 -0.105631
0.378100 0.171617 -0.146034
0.412809 0.207447 -0.124041
0.417011 0.212197 -0.121749
0.421432 0.217185 -0.120757
0.425320 0.221859 -0.118103
0.430223 0.224474 -0.115989
0.429827 0.227105 -0.113372
0.434296 0.227564 -0.113024
0.392882 0.187459 -0.148685
0.405653 0.201942 -0.143464
0.382424 0.171522 -0.147913
0.414640 0.204396 -0.129029
0.357853 0.211318 -0.113028
0.365595 0.220009 -0.110356
0.361714 0.215751 -0.111736
0.369370 0.224313 -0.109066
0.351847 0.200317 -0.112271
0.347645 0.195829 -0.112640
0.377078 0.233287 -0.104878
0.373581 0.228184 -0.106777
0.355025 0.204311 -0.111700
0.363382 0.213799 -0.109960
0.360961 0.211345 -0.110358
0.361887 0.207092 -0.109532
0.358072 0.201963 -0.110454
0.354132 0.197861 -0.111205
0.344121 0.188001 -0.109291
0.374178 0.224841 -0.106581
0.371499 0.221962 -0.107993
0.368715 0.218286 -0.108944
0.369156 0.215088 -0.107022
0.365834 0.211638 -0.108649
0.350522 0.194761 -0.111084
0.348272 0.192253 -0.108309
0.352187 0.192736 -0.108166
0.378680 0.230929 -0.099891
0.377305 0.224003 -0.103221
0.373271 0.219369 -0.105663
0.355365 0.195234 -0.108267
0.377590 0.228213 -0.102201
0.359575 0.199346 -0.106126
0.349848 0.190967 -0.102401
0.345593 0.186571 -0.103492
0.378875 0.226804 -0.100924
0.366794 0.207896 -0.103026
0.363198 0.203679 -0.104586
0.382530 0.232483 -0.092857
0.380501 0.228329 -0.094746
0.370502 0.212299 -0.101316
0.356191 0.193104 -0.102306
0.346556 0.183294 -0.098805
0.343159 0.179491 -0.099492
0.339142 0.174070 -0.101344
0.339040 0.173985 -0.104572
0.380531 0.225400 -0.097112
0.378540 0.221417 -0.097798
0.374118 0.216627 -0.099826
0.360270 0.196796 -0.100804
0.353188 0.192331 -0.099785
0.350642 0.187504 -0.096592
0.337018 0.170204 -0.101903
0.363911 0.201172 -0.099282
0.354426 0.192051 -0.095120
0.381104 0.227118 -0.089422
0.371144 0.209723 -0.095995
0.367485 0.205405 -0.097621
0.357192 0.192911 -0.097881
0.343489 0.175823 -0.095573
