# This PCD file was generated using the MATLAB® pcwrite function
# from Computer Vision System Toolbox®.
# .PCD v.7 - Point Cloud Data file format
VERSION .7
FIELDS x y z rgb
SIZE 4 4 4 4
TYPE F F F F
COUNT 1 1 1 1
WIDTH 1109
HEIGHT 1
VIEWPOINT 0 0 0 1 0 0 0
POINTS 1109
DATA ascii
0.225830 0.095213 0.323304 3.573311084e-43
0.186701 0.086504 0.313564 3.573311084e-43
0.222214 0.096359 0.251892 3.573311084e-43
0.294836 0.013757 0.184505 3.573311084e-43
0.251121 0.147996 0.201048 3.573311084e-43
0.247066 0.153401 0.196615 3.573311084e-43
0.198693 0.106204 0.274622 3.573311084e-43
0.224419 0.010129 0.272368 3.573311084e-43
0.215254 0.123385 0.203359 3.573311084e-43
0.190521 0.014698 0.251317 3.573311084e-43
0.229043 0.122498 0.302078 3.573311084e-43
0.212750 0.086439 0.207870 3.573311084e-43
0.205854 0.114919 0.251200 3.573311084e-43
0.201283 0.097131 0.228545 3.573311084e-43
0.248283 0.135197 0.291227 3.573311084e-43
0.240098 0.146705 0.294104 3.573311084e-43
0.243812 0.138538 0.281994 3.573311084e-43
0.239759 0.149611 0.259836 3.573311084e-43
0.239562 0.108576 0.180151 3.573311084e-43
0.200951 0.099400 0.324231 3.573311084e-43
0.215305 0.075660 0.319578 3.573311084e-43
0.281318 0.157588 0.321206 3.573311084e-43
0.210897 0.087301 0.206822 3.573311084e-43
0.201871 0.044022 0.235260 3.573311084e-43
0.212173 0.044846 0.299423 3.573311084e-43
0.215790 0.057108 0.312911 3.573311084e-43
0.205473 0.104441 0.211977 3.573311084e-43
0.202169 0.086849 0.264578 3.573311084e-43
0.200781 0.091164 0.275559 3.573311084e-43
0.208322 0.105933 0.254042 3.573311084e-43
0.199487 0.106110 0.249705 3.573311084e-43
0.196611 0.109147 0.280016 3.573311084e-43
0.212780 0.029688 0.289302 3.573311084e-43
0.176756 0.081435 0.314958 3.573311084e-43
0.216617 0.121557 0.194912 3.573311084e-43
0.203480 0.116206 0.203609 3.573311084e-43
0.191793 0.101197 0.263675 3.573311084e-43
0.185623 0.066509 0.290870 3.573311084e-43
0.247332 0.150021 0.285432 3.573311084e-43
0.196227 0.041522 0.282082 3.573311084e-43
0.240948 0.154200 0.253839 3.573311084e-43
0.181944 0.098168 0.319261 3.573311084e-43
0.204243 0.105915 0.278432 3.573311084e-43
0.200038 0.018824 0.226554 3.573311084e-43
0.255946 0.091686 0.189852 3.573311084e-43
0.225997 0.093640 0.314731 3.573311084e-43
0.206513 0.093396 0.202634 3.573311084e-43
0.223172 0.094418 0.322878 3.573311084e-43
0.178147 0.071105 0.276764 3.573311084e-43
0.187698 0.044990 0.306202 3.573311084e-43
0.182344 0.067190 0.292673 3.573311084e-43
0.210608 0.086420 0.249991 3.573311084e-43
0.188837 0.057177 0.295449 3.573311084e-43
0.215840 0.002429 0.291275 3.573311084e-43
0.244395 0.073132 0.295854 3.573311084e-43
0.232049 0.165537 0.261368 3.573311084e-43
0.237013 0.164629 0.247124 3.573311084e-43
0.232161 0.170431 0.239384 3.573311084e-43
0.238331 0.156508 0.242455 3.573311084e-43
0.227560 0.163528 0.228692 3.573311084e-43
0.251661 0.101597 0.183441 3.573311084e-43
0.247300 0.136921 0.200388 3.573311084e-43
0.174695 0.096734 0.300625 3.573311084e-43
0.228721 0.070913 0.260494 3.573311084e-43
0.215493 0.135142 0.259647 3.573311084e-43
0.200025 0.038591 0.281767 3.573311084e-43
0.186021 0.057137 0.286588 3.573311084e-43
0.184573 0.067146 0.297118 3.573311084e-43
0.207431 0.094434 0.240937 3.573311084e-43
0.236591 0.096912 0.193261 3.573311084e-43
0.241119 0.130680 0.284447 3.573311084e-43
0.241018 0.140169 0.279665 3.573311084e-43
0.247560 0.143382 0.273976 3.573311084e-43
0.243991 0.145666 0.263076 3.573311084e-43
0.199100 0.100409 0.252967 3.573311084e-43
0.181750 0.057496 0.306480 3.573311084e-43
0.210121 0.086735 0.234210 3.573311084e-43
0.214593 0.094995 0.201693 3.573311084e-43
0.187711 0.030856 0.251502 3.573311084e-43
0.201392 0.099287 0.245281 3.573311084e-43
0.203724 0.094293 0.244863 3.573311084e-43
0.232996 0.008566 0.288187 3.573311084e-43
0.189151 0.065254 0.272436 3.573311084e-43
0.200582 0.099092 0.248464 3.573311084e-43
0.243763 0.151111 0.196067 3.573311084e-43
0.248231 0.108116 0.315909 3.573311084e-43
0.204952 0.029637 0.223436 3.573311084e-43
0.181371 0.028446 0.236465 3.573311084e-43
0.222072 0.114837 0.305263 3.573311084e-43
0.262411 0.139415 0.292012 3.573311084e-43
0.203701 0.091031 0.248399 3.573311084e-43
0.268584 0.064174 0.316113 3.573311084e-43
0.225521 0.070904 0.241144 3.573311084e-43
0.216156 0.078239 0.265279 3.573311084e-43
0.191759 0.029842 0.246700 3.573311084e-43
0.218277 0.156556 0.243774 3.573311084e-43
0.236723 0.157399 0.239611 3.573311084e-43
0.228852 0.165392 0.243317 3.573311084e-43
0.203510 0.100614 0.276622 3.573311084e-43
0.201934 0.081065 0.226077 3.573311084e-43
0.244768 0.114499 0.180406 3.573311084e-43
0.224827 0.072782 0.313273 3.573311084e-43
0.218449 0.042842 0.275214 3.573311084e-43
0.223744 0.105175 0.303253 3.573311084e-43
0.201486 0.092290 0.251185 3.573311084e-43
0.193676 0.077006 0.270981 3.573311084e-43
0.233328 0.072384 0.313781 3.573311084e-43
0.196624 0.109518 0.216063 3.573311084e-43
0.207092 0.112352 0.225770 3.573311084e-43
0.218271 0.079284 0.315669 3.573311084e-43
0.203393 0.103401 0.266451 3.573311084e-43
0.195832 0.055223 0.303802 3.573311084e-43
0.224752 0.035662 0.279473 3.573311084e-43
0.212273 0.070347 0.269197 3.573311084e-43
0.202543 0.053160 0.241616 3.573311084e-43
0.218967 0.005434 0.278396 3.573311084e-43
0.186252 0.056510 0.292537 3.573311084e-43
0.213054 0.032067 0.273982 3.573311084e-43
0.250466 0.127150 0.300929 3.573311084e-43
0.202170 0.099136 0.257831 3.573311084e-43
0.193378 0.047765 0.308018 3.573311084e-43
0.193113 0.083665 0.272385 3.573311084e-43
0.206340 0.083431 0.215133 3.573311084e-43
0.233386 0.151441 0.245608 3.573311084e-43
0.226412 0.162262 0.257184 3.573311084e-43
0.210535 0.159830 0.239387 3.573311084e-43
0.232620 0.156583 0.233292 3.573311084e-43
0.234542 0.166806 0.233597 3.573311084e-43
0.202963 0.103850 0.244850 3.573311084e-43
0.194633 0.119635 0.236513 3.573311084e-43
0.199671 0.111719 0.239463 3.573311084e-43
0.253888 0.131033 0.297861 3.573311084e-43
0.218015 0.092564 0.322021 3.573311084e-43
0.262293 0.067997 0.248244 3.573311084e-43
0.248519 0.154453 0.198671 3.573311084e-43
0.249895 0.150131 0.184329 3.573311084e-43
0.254578 0.109095 0.185340 3.573311084e-43
0.248335 0.137652 0.287164 3.573311084e-43
0.252842 0.133366 0.292796 3.573311084e-43
0.197939 0.064014 0.267809 3.573311084e-43
0.207660 0.132282 0.229256 3.573311084e-43
0.201995 0.106873 0.215051 3.573311084e-43
0.230029 0.146053 0.279301 3.573311084e-43
0.234127 0.150297 0.281575 3.573311084e-43
0.238115 0.136508 0.270391 3.573311084e-43
0.231875 0.141379 0.268781 3.573311084e-43
0.180738 0.064580 0.310624 3.573311084e-43
0.205691 0.049853 0.282859 3.573311084e-43
0.188970 0.105881 0.223748 3.573311084e-43
0.174150 0.096265 0.313435 3.573311084e-43
0.200950 0.092806 0.238784 3.573311084e-43
0.238930 0.098677 0.197886 3.573311084e-43
0.201907 0.121779 0.209211 3.573311084e-43
0.207162 0.034140 0.254237 3.573311084e-43
0.232857 0.122509 0.297212 3.573311084e-43
0.213274 0.092249 0.196235 3.573311084e-43
0.304093 0.016243 0.294999 3.573311084e-43
0.205003 0.048599 0.303541 3.573311084e-43
0.218019 0.011198 0.282468 3.573311084e-43
0.235688 0.081566 0.308246 3.573311084e-43
0.210990 -0.002767 0.292060 3.573311084e-43
0.193354 0.117031 0.235260 3.573311084e-43
0.187754 0.022733 0.233743 3.573311084e-43
0.207630 0.088086 0.272328 3.573311084e-43
0.230303 0.063617 0.272087 3.573311084e-43
0.246240 0.086310 0.209679 3.573311084e-43
0.214888 0.073737 0.315650 3.573311084e-43
0.243401 0.144370 0.205830 3.573311084e-43
0.251607 0.152454 0.184301 3.573311084e-43
0.244116 0.146981 0.188696 3.573311084e-43
0.194972 0.037130 0.265894 3.573311084e-43
0.240254 0.080200 0.309232 3.573311084e-43
0.209465 0.028673 0.295607 3.573311084e-43
0.230045 0.063519 0.259630 3.573311084e-43
0.223719 0.133662 0.252420 3.573311084e-43
0.239164 0.071189 0.277773 3.573311084e-43
0.228173 0.071071 0.301547 3.573311084e-43
0.260446 0.075439 0.282518 3.573311084e-43
0.275308 0.070335 0.257780 3.573311084e-43
0.222555 0.162889 0.237092 3.573311084e-43
0.223167 0.160285 0.227723 3.573311084e-43
0.229239 0.108875 0.177600 3.573311084e-43
0.188326 0.061773 0.297671 3.573311084e-43
0.232764 0.129778 0.301554 3.573311084e-43
0.226983 0.144139 0.178540 3.573311084e-43
0.261735 0.082353 0.293118 3.573311084e-43
0.255072 0.083517 0.270876 3.573311084e-43
0.232109 0.134581 0.282332 3.573311084e-43
0.198441 0.102928 0.233911 3.573311084e-43
0.198429 0.114319 0.207164 3.573311084e-43
0.194647 0.102913 0.269832 3.573311084e-43
0.212655 0.120585 0.246118 3.573311084e-43
0.186939 0.065238 0.313828 3.573311084e-43
0.198745 0.066804 0.268912 3.573311084e-43
0.208827 0.037974 0.304752 3.573311084e-43
0.231193 0.081074 0.310258 3.573311084e-43
0.219860 0.053480 0.308968 3.573311084e-43
0.255167 0.073409 0.268566 3.573311084e-43
0.221946 0.059856 0.317646 3.573311084e-43
0.269037 0.079735 0.239590 3.573311084e-43
0.273499 0.081381 0.231957 3.573311084e-43
0.245876 0.064462 0.285466 3.573311084e-43
0.250074 0.078556 0.207051 3.573311084e-43
0.254076 0.071365 0.238224 3.573311084e-43
0.237551 0.142220 0.269840 3.573311084e-43
0.237150 0.138185 0.267096 3.573311084e-43
0.224305 0.138208 0.267314 3.573311084e-43
0.192259 0.093563 0.248697 3.573311084e-43
0.203855 0.085405 0.243249 3.573311084e-43
0.219483 0.157097 0.253845 3.573311084e-43
0.218838 0.150680 0.234968 3.573311084e-43
0.215794 0.157181 0.240981 3.573311084e-43
0.221311 0.153868 0.231751 3.573311084e-43
0.219981 0.158645 0.223432 3.573311084e-43
0.199384 0.043169 0.258542 3.573311084e-43
0.227737 0.129407 0.186681 3.573311084e-43
0.222824 0.064795 0.284997 3.573311084e-43
0.255507 0.081664 0.239411 3.573311084e-43
0.269051 0.070778 0.266460 3.573311084e-43
0.227234 0.066914 0.307683 3.573311084e-43
0.197454 0.044301 0.253771 3.573311084e-43
0.260205 0.073305 0.234389 3.573311084e-43
0.255637 0.082588 0.208614 3.573311084e-43
0.225510 0.140194 0.283975 3.573311084e-43
0.174560 0.066250 0.306952 3.573311084e-43
0.192616 0.110746 0.211204 3.573311084e-43
0.238497 0.075251 0.303778 3.573311084e-43
0.185302 0.087214 0.321036 3.573311084e-43
0.229154 0.057808 0.287457 3.573311084e-43
0.247966 0.136507 0.186742 3.573311084e-43
0.238967 0.143508 0.183513 3.573311084e-43
0.189563 0.094141 0.315320 3.573311084e-43
0.216049 0.099609 0.209584 3.573311084e-43
0.232977 0.048432 0.289875 3.573311084e-43
0.228036 0.063409 0.291838 3.573311084e-43
0.235931 0.068558 0.291828 3.573311084e-43
0.240437 0.007325 0.277680 3.573311084e-43
0.242367 0.135526 0.194592 3.573311084e-43
0.191747 0.043538 0.278905 3.573311084e-43
0.219245 0.138243 0.227090 3.573311084e-43
0.222864 0.061151 0.264839 3.573311084e-43
0.273756 0.079176 0.249938 3.573311084e-43
0.214293 0.029132 0.223650 3.573311084e-43
0.198068 0.038714 0.262099 3.573311084e-43
0.200153 0.040457 0.276410 3.573311084e-43
0.223268 -0.006630 0.271816 3.573311084e-43
0.217650 0.015931 0.276382 3.573311084e-43
0.214156 0.088154 0.236363 3.573311084e-43
0.270856 0.084149 0.215321 3.573311084e-43
0.200144 0.032152 0.250774 3.573311084e-43
0.196440 0.045722 0.282605 3.573311084e-43
0.218651 0.050860 0.307262 3.573311084e-43
0.232196 0.129955 0.310094 3.573311084e-43
0.252716 0.071158 0.236990 3.573311084e-43
0.218626 0.049859 0.269388 3.573311084e-43
0.192974 0.021116 0.231721 3.573311084e-43
0.218590 0.144464 0.261624 3.573311084e-43
0.189528 0.110720 0.298873 3.573311084e-43
0.217427 0.033209 0.279413 3.573311084e-43
0.218697 0.093006 0.314720 3.573311084e-43
0.206889 0.040173 0.222324 3.573311084e-43
0.206794 0.123834 0.234864 3.573311084e-43
0.247137 0.137882 0.302466 3.573311084e-43
0.254355 0.082340 0.275841 3.573311084e-43
0.235017 0.125579 0.289472 3.573311084e-43
0.233035 0.130902 0.284139 3.573311084e-43
0.213223 0.142387 0.255292 3.573311084e-43
0.213102 0.150715 0.255366 3.573311084e-43
0.209949 0.146306 0.248897 3.573311084e-43
0.213723 0.151483 0.230484 3.573311084e-43
0.210200 0.156795 0.240441 3.573311084e-43
0.273582 0.000341 0.179831 3.573311084e-43
0.208786 0.053382 0.241201 3.573311084e-43
0.227428 0.001303 0.276670 3.573311084e-43
0.198120 0.055192 0.312049 3.573311084e-43
0.229246 0.010743 0.266473 3.573311084e-43
0.220921 0.096490 0.178499 3.573311084e-43
0.210837 0.050918 0.296058 3.573311084e-43
0.187138 0.020023 0.239314 3.573311084e-43
0.244472 0.115365 0.314012 3.573311084e-43
0.231166 0.127364 0.296643 3.573311084e-43
0.222495 0.151287 0.300280 3.573311084e-43
0.176557 0.054762 0.264882 3.573311084e-43
0.219570 0.133830 0.278646 3.573311084e-43
0.226463 0.128698 0.269723 3.573311084e-43
0.226720 0.126158 0.270938 3.573311084e-43
0.227488 0.136250 0.274903 3.573311084e-43
0.229486 -0.005268 0.270656 3.573311084e-43
0.265135 0.097210 0.198121 3.573311084e-43
0.259268 0.164301 0.299722 3.573311084e-43
0.185947 0.138939 0.230672 3.573311084e-43
0.175794 0.142580 0.322890 3.573311084e-43
0.195221 0.070516 0.285436 3.573311084e-43
0.195865 0.036879 0.261265 3.573311084e-43
0.232073 0.008308 0.290831 3.573311084e-43
0.232928 0.177358 0.174733 3.573311084e-43
0.214643 0.143720 0.258772 3.573311084e-43
0.220412 0.071858 0.244312 3.573311084e-43
0.222906 0.021819 0.269841 3.573311084e-43
0.308439 0.090538 0.285320 3.573311084e-43
0.233068 0.002965 0.290051 3.573311084e-43
0.218618 0.026800 0.277220 3.573311084e-43
0.207271 0.079632 0.325890 3.573311084e-43
0.226869 0.129901 0.293119 3.573311084e-43
0.220349 0.136481 0.265913 3.573311084e-43
0.220008 0.122999 0.292904 3.573311084e-43
0.210663 0.073160 0.314849 3.573311084e-43
0.219442 0.087108 0.322681 3.573311084e-43
0.202469 0.067286 0.275078 3.573311084e-43
0.192949 0.025000 0.252598 3.573311084e-43
0.188629 0.053877 0.301764 3.573311084e-43
0.206968 0.113257 0.309699 3.573311084e-43
0.220938 0.082496 0.324881 3.573311084e-43
0.215324 0.093433 0.315312 3.573311084e-43
0.203220 0.140281 0.252127 3.573311084e-43
0.215095 0.150708 0.253768 3.573311084e-43
0.205081 0.147338 0.246318 3.573311084e-43
0.212336 0.153949 0.235791 3.573311084e-43
0.219278 0.151612 0.231293 3.573311084e-43
0.206259 0.155743 0.230365 3.573311084e-43
0.201022 0.146398 0.235480 3.573311084e-43
0.229443 0.072932 0.263491 3.573311084e-43
0.209479 0.073348 0.313009 3.573311084e-43
0.193349 0.088307 0.261372 3.573311084e-43
0.229522 0.083006 0.298564 3.573311084e-43
0.223443 0.132559 0.309234 3.573311084e-43
0.215109 0.129070 0.306795 3.573311084e-43
0.218619 0.129062 0.296675 3.573311084e-43
0.214430 0.130830 0.282693 3.573311084e-43
0.200394 0.012263 0.292556 3.573311084e-43
0.217491 0.129381 0.285846 3.573311084e-43
0.233809 0.129871 0.275410 3.573311084e-43
0.222450 0.135907 0.264608 3.573311084e-43
0.225113 0.126827 0.268778 3.573311084e-43
0.180710 0.053029 0.308105 3.573311084e-43
0.200620 0.094691 0.260501 3.573311084e-43
0.187577 0.108260 0.306156 3.573311084e-43
0.210291 0.038086 0.292960 3.573311084e-43
0.214655 0.018338 0.287357 3.573311084e-43
0.219209 0.130934 0.263402 3.573311084e-43
0.234174 0.076795 0.308154 3.573311084e-43
0.212310 0.143968 0.220153 3.573311084e-43
0.210426 0.055237 0.305952 3.573311084e-43
0.222068 0.079602 0.214319 3.573311084e-43
0.219707 0.152217 0.228615 3.573311084e-43
0.208468 0.023515 0.281374 3.573311084e-43
0.176533 0.070095 0.304484 3.573311084e-43
0.217568 0.072675 0.220405 3.573311084e-43
0.207491 0.135477 0.258632 3.573311084e-43
0.204357 0.141996 0.243590 3.573311084e-43
0.211706 0.140867 0.231477 3.573311084e-43
0.209796 0.143459 0.236554 3.573311084e-43
0.206982 0.143039 0.237268 3.573311084e-43
0.179246 0.008939 0.183068 3.573311084e-43
0.245724 -0.001017 0.216677 3.573311084e-43
0.199283 0.049722 0.299307 3.573311084e-43
0.226983 0.082430 0.197549 3.573311084e-43
0.216847 0.122961 0.306800 3.573311084e-43
0.221478 0.126300 0.285145 3.573311084e-43
0.222008 0.122485 0.283107 3.573311084e-43
0.221511 0.120509 0.279870 3.573311084e-43
0.220904 0.122977 0.274822 3.573311084e-43
0.216270 0.129788 0.265246 3.573311084e-43
0.217928 0.130978 0.257843 3.573311084e-43
0.213217 0.139778 0.217775 3.573311084e-43
0.214148 0.146565 0.221513 3.573311084e-43
0.218580 0.126540 0.306049 3.573311084e-43
0.265332 0.076577 0.257828 3.573311084e-43
0.197058 0.027862 0.240572 3.573311084e-43
0.213957 0.115846 0.318273 3.573311084e-43
0.205525 0.062240 0.320323 3.573311084e-43
0.201746 0.028643 0.295602 3.573311084e-43
0.209949 0.088073 0.212607 3.573311084e-43
0.281488 0.079337 0.170387 3.573311084e-43
0.232888 0.011871 0.281787 3.573311084e-43
0.234579 0.062663 0.259125 3.573311084e-43
0.183243 0.069481 0.281203 3.573311084e-43
0.186314 0.103698 0.204670 3.573311084e-43
0.211463 0.133452 0.272426 3.573311084e-43
0.206466 0.153433 0.215718 3.573311084e-43
0.228723 0.092030 0.197943 3.573311084e-43
0.213183 0.091393 0.208016 3.573311084e-43
0.199352 0.149063 0.248127 3.573311084e-43
0.236295 0.071499 0.234178 3.573311084e-43
0.202927 0.076689 0.320943 3.573311084e-43
0.212196 0.116754 0.309898 3.573311084e-43
0.213272 0.117513 0.302287 3.573311084e-43
0.203319 0.130876 0.291776 3.573311084e-43
0.209420 0.123271 0.282418 3.573311084e-43
0.222979 0.128433 0.286767 3.573311084e-43
0.208152 0.126203 0.279205 3.573311084e-43
0.218779 0.123223 0.268206 3.573311084e-43
0.205320 0.124510 0.265206 3.573311084e-43
0.246491 0.108327 0.265111 3.573311084e-43
0.203969 0.136083 0.254025 3.573311084e-43
0.208473 0.125728 0.237672 3.573311084e-43
0.201510 0.131367 0.231616 3.573311084e-43
0.195215 0.135650 0.237530 3.573311084e-43
0.209278 0.145081 0.227459 3.573311084e-43
0.206200 0.137023 0.221236 3.573311084e-43
0.223446 -0.004374 0.286748 3.573311084e-43
0.239292 0.038330 0.287006 3.573311084e-43
0.185775 0.036565 0.271784 3.573311084e-43
0.232176 0.105127 0.314721 3.573311084e-43
0.224598 -0.014469 0.281312 3.573311084e-43
0.250407 0.075177 0.272992 3.573311084e-43
0.219270 0.117998 0.296731 3.573311084e-43
0.201274 0.090656 0.271269 3.573311084e-43
0.201681 0.137109 0.245564 3.573311084e-43
0.204067 0.132620 0.243828 3.573311084e-43
0.202002 0.149485 0.237404 3.573311084e-43
0.206877 0.122882 0.217448 3.573311084e-43
0.219483 0.090469 0.324563 3.573311084e-43
0.225273 0.130200 0.302617 3.573311084e-43
0.242011 0.106328 0.191804 3.573311084e-43
0.216628 0.119644 0.192183 3.573311084e-43
0.180767 0.060321 0.290288 3.573311084e-43
0.186434 0.070947 0.323443 3.573311084e-43
0.218662 0.032437 0.291803 3.573311084e-43
0.262918 0.087454 0.268330 3.573311084e-43
0.205296 0.073960 0.264512 3.573311084e-43
0.208602 0.101114 0.296853 3.573311084e-43
0.214572 0.112194 0.298771 3.573311084e-43
0.210500 0.124212 0.292510 3.573311084e-43
0.209593 0.117798 0.278524 3.573311084e-43
0.204134 0.119558 0.273143 3.573311084e-43
0.205155 0.118772 0.280705 3.573311084e-43
0.213423 0.129303 0.268521 3.573311084e-43
0.203158 0.135201 0.248199 3.573311084e-43
0.199414 0.128820 0.249462 3.573311084e-43
0.239033 0.045675 0.217910 3.573311084e-43
0.197312 0.142310 0.226953 3.573311084e-43
0.208635 0.137187 0.217844 3.573311084e-43
0.202476 0.129020 0.208874 3.573311084e-43
0.225410 0.064481 0.288438 3.573311084e-43
0.212363 0.027208 0.295712 3.573311084e-43
0.209206 0.075805 0.313028 3.573311084e-43
0.217728 -0.003731 0.276308 3.573311084e-43
0.204138 0.026029 0.276303 3.573311084e-43
0.235854 0.147991 0.297987 3.573311084e-43
0.228317 0.100497 0.190008 3.573311084e-43
0.261363 0.078429 0.269303 3.573311084e-43
0.213815 0.115200 0.292049 3.573311084e-43
0.207227 0.124830 0.279485 3.573311084e-43
0.207151 0.115837 0.279986 3.573311084e-43
0.207823 0.114965 0.264716 3.573311084e-43
0.198343 0.133313 0.235380 3.573311084e-43
0.211564 0.038816 0.290575 3.573311084e-43
0.239764 0.070180 0.308716 3.573311084e-43
0.202089 0.030414 0.247102 3.573311084e-43
0.198800 0.115686 0.303943 3.573311084e-43
0.215568 0.109059 0.301116 3.573311084e-43
0.200066 0.062403 0.311860 3.573311084e-43
0.212250 0.109585 0.262127 3.573311084e-43
0.202967 0.128985 0.258274 3.573311084e-43
0.216443 0.121514 0.242876 3.573311084e-43
0.277438 0.130150 0.250004 3.573311084e-43
0.202987 0.120319 0.229044 3.573311084e-43
0.201730 0.119923 0.233732 3.573311084e-43
0.198037 0.121628 0.223790 3.573311084e-43
0.202088 0.120804 0.224183 3.573311084e-43
0.206506 0.100359 0.303264 3.573311084e-43
0.204566 0.111673 0.299036 3.573311084e-43
0.209547 0.101824 0.298468 3.573311084e-43
0.207671 0.115779 0.282409 3.573311084e-43
0.200363 0.100827 0.279346 3.573311084e-43
0.284521 0.173989 0.286019 3.573311084e-43
0.212542 0.110618 0.279774 3.573311084e-43
0.205915 0.119716 0.270169 3.573311084e-43
0.202671 0.130113 0.217094 3.573311084e-43
0.195661 0.066608 0.275549 3.573311084e-43
0.213197 0.117608 0.212843 3.573311084e-43
0.243835 0.109191 0.186230 3.573311084e-43
0.200619 0.107384 0.296666 3.573311084e-43
0.196002 0.113875 0.248282 3.573311084e-43
0.202166 0.119046 0.241530 3.573311084e-43
0.215446 0.111085 0.229812 3.573311084e-43
0.195194 0.107383 0.214058 3.573311084e-43
0.207467 0.126956 0.213210 3.573311084e-43
0.205410 0.125605 0.210166 3.573311084e-43
0.190653 0.046645 0.255187 3.573311084e-43
0.216326 0.057217 0.279484 3.573311084e-43
0.248534 0.075974 0.268952 3.573311084e-43
0.254309 0.123218 0.215739 3.573311084e-43
0.250343 0.087621 0.209740 3.573311084e-43
0.260438 0.011145 0.213325 3.573311084e-43
0.194002 0.022798 0.257287 3.573311084e-43
0.227417 0.068983 0.288919 3.573311084e-43
0.213024 0.039731 0.253641 3.573311084e-43
0.202680 0.100706 0.297630 3.573311084e-43
0.201331 0.105727 0.291893 3.573311084e-43
0.204482 0.100259 0.285516 3.573311084e-43
0.205016 0.103728 0.280321 3.573311084e-43
0.199227 0.114084 0.286260 3.573311084e-43
0.209302 0.105011 0.268794 3.573311084e-43
0.201700 0.108481 0.249501 3.573311084e-43
0.193424 0.110471 0.237733 3.573311084e-43
0.193133 0.122024 0.247235 3.573311084e-43
0.207224 0.125181 0.201305 3.573311084e-43
0.253105 0.082446 0.198491 3.573311084e-43
0.307399 0.055120 0.300663 3.573311084e-43
0.202644 0.056277 0.269270 3.573311084e-43
0.253212 0.072122 0.288667 3.573311084e-43
0.228579 0.071933 0.297554 3.573311084e-43
0.255464 0.070492 0.270143 3.573311084e-43
0.252021 0.074062 0.277681 3.573311084e-43
0.246310 0.169163 0.263747 3.573311084e-43
0.243697 0.174539 0.265891 3.573311084e-43
0.218693 0.066331 0.307547 3.573311084e-43
0.201683 0.034681 0.236828 3.573311084e-43
0.210007 0.105688 0.216873 3.573311084e-43
0.202547 0.033449 0.227882 3.573311084e-43
0.206086 0.050969 0.281932 3.573311084e-43
0.253003 0.180734 0.234347 3.573311084e-43
0.203290 0.130231 0.202468 3.573311084e-43
0.232862 0.064675 0.290244 3.573311084e-43
0.246203 0.157370 0.291212 3.573311084e-43
0.246884 0.171991 0.258610 3.573311084e-43
0.256303 0.164906 0.254983 3.573311084e-43
0.197020 0.115923 0.288517 3.573311084e-43
0.188120 0.088143 0.284371 3.573311084e-43
0.262307 0.164080 0.225455 3.573311084e-43
0.204288 0.103440 0.274084 3.573311084e-43
0.191571 0.026298 0.238829 3.573311084e-43
0.227298 0.032505 0.273524 3.573311084e-43
0.211808 0.135692 0.193472 3.573311084e-43
0.197940 0.055367 0.270613 3.573311084e-43
0.251032 0.164461 0.235712 3.573311084e-43
0.203685 0.097462 0.304908 3.573311084e-43
0.195924 0.092418 0.276787 3.573311084e-43
0.247789 0.162285 0.273932 3.573311084e-43
0.269264 0.075043 0.232818 3.573311084e-43
0.189999 0.029393 0.222622 3.573311084e-43
0.256873 0.157302 0.207289 3.573311084e-43
0.243385 0.069608 0.292448 3.573311084e-43
0.204700 0.112764 0.209777 3.573311084e-43
0.186973 0.082715 0.292326 3.573311084e-43
0.200713 0.044051 0.232633 3.573311084e-43
0.224177 0.020558 0.299573 3.573311084e-43
0.245945 0.171186 0.225690 3.573311084e-43
0.251071 0.162933 0.216899 3.573311084e-43
0.240039 0.158453 0.213896 3.573311084e-43
0.262777 0.165829 0.206940 3.573311084e-43
0.220291 0.123386 0.189491 3.573311084e-43
0.260063 0.157921 0.215612 3.573311084e-43
0.192471 0.032366 0.232378 3.573311084e-43
0.195605 0.098014 0.302350 3.573311084e-43
0.258323 0.060350 0.294775 3.573311084e-43
0.180712 0.084860 0.292086 3.573311084e-43
0.199634 0.060842 0.260798 3.573311084e-43
0.198880 0.039530 0.242354 3.573311084e-43
0.201511 0.024360 0.243789 3.573311084e-43
0.201668 0.092019 0.286566 3.573311084e-43
0.226783 0.101298 0.292480 3.573311084e-43
0.241687 0.077120 0.291056 3.573311084e-43
0.191717 0.065475 0.271600 3.573311084e-43
0.241348 -0.009510 0.251794 3.573311084e-43
0.254514 0.111476 0.189698 3.573311084e-43
0.259597 0.162676 0.203719 3.573311084e-43
0.182570 0.091110 0.288712 3.573311084e-43
0.243679 0.064138 0.280488 3.573311084e-43
0.288377 0.106132 0.250442 3.573311084e-43
0.237299 0.110610 0.310243 3.573311084e-43
0.189040 0.107988 0.298994 3.573311084e-43
0.221376 0.066391 0.191256 3.573311084e-43
0.201392 0.049420 0.262042 3.573311084e-43
0.195696 0.108421 0.279944 3.573311084e-43
0.185946 0.092544 0.287760 3.573311084e-43
0.251289 0.166067 0.193484 3.573311084e-43
0.266465 0.154302 0.191361 3.573311084e-43
0.200517 0.025126 0.231105 3.573311084e-43
0.192262 0.029404 0.235472 3.573311084e-43
0.210478 0.118705 0.204494 3.573311084e-43
0.187911 0.090969 0.299914 3.573311084e-43
0.254090 0.150768 0.185504 3.573311084e-43
0.293128 0.006281 0.277150 3.573311084e-43
0.253609 0.157882 0.190936 3.573311084e-43
0.187736 0.025269 0.220478 3.573311084e-43
0.216604 0.122530 0.198957 3.573311084e-43
0.281221 0.174777 0.210495 3.573311084e-43
0.184797 0.094298 0.294486 3.573311084e-43
0.208904 0.043142 0.244936 3.573311084e-43
0.191881 0.024017 0.235560 3.573311084e-43
0.244981 0.174620 0.233034 3.573311084e-43
0.189532 0.090977 0.294053 3.573311084e-43
0.257157 0.155976 0.180047 3.573311084e-43
0.241021 0.067598 0.215407 3.573311084e-43
0.199201 0.046174 0.245207 3.573311084e-43
0.186275 0.047421 0.258504 3.573311084e-43
0.200551 0.057928 0.250552 3.573311084e-43
0.197740 0.046856 0.233086 3.573311084e-43
0.228252 0.001577 0.193107 3.573311084e-43
0.245756 0.148124 0.210661 3.573311084e-43
0.233327 0.168891 0.209950 3.573311084e-43
0.243691 0.161504 0.218107 3.573311084e-43
0.249886 0.158368 0.208065 3.573311084e-43
0.211582 0.128749 0.210340 3.573311084e-43
0.260919 0.154124 0.179677 3.573311084e-43
0.201453 0.090411 0.297353 3.573311084e-43
0.197239 0.040271 0.248497 3.573311084e-43
0.253378 0.082775 0.205636 3.573311084e-43
0.213516 0.085738 0.325173 3.573311084e-43
0.195957 0.083128 0.285438 3.573311084e-43
0.208361 0.071933 0.265667 3.573311084e-43
0.198593 0.061635 0.272067 3.573311084e-43
0.191754 0.031207 0.245664 3.573311084e-43
0.238817 0.094165 0.188905 3.573311084e-43
0.227999 0.170304 0.223337 3.573311084e-43
0.253832 0.159903 0.187270 3.573311084e-43
0.277395 0.038523 0.270843 3.573311084e-43
0.249967 0.152254 0.170421 3.573311084e-43
0.248226 0.115449 0.301168 3.573311084e-43
0.217733 -0.019830 0.289089 3.573311084e-43
0.238435 0.160417 0.228245 3.573311084e-43
0.247366 0.161190 0.222117 3.573311084e-43
0.229932 0.151449 0.213622 3.573311084e-43
0.243018 0.159103 0.203361 3.573311084e-43
0.247582 0.155232 0.203579 3.573311084e-43
0.303617 0.074912 0.260710 3.573311084e-43
0.192461 0.093657 0.309690 3.573311084e-43
0.246705 0.139775 0.176831 3.573311084e-43
0.207098 0.139031 0.197371 3.573311084e-43
0.199049 0.041091 0.249794 3.573311084e-43
0.198675 0.088150 0.281273 3.573311084e-43
0.199440 0.057232 0.274899 3.573311084e-43
0.185499 0.077965 0.291209 3.573311084e-43
0.194955 0.048288 0.254184 3.573311084e-43
0.191519 0.082105 0.289822 3.573311084e-43
0.219943 0.114353 0.187784 3.573311084e-43
0.211426 0.019894 0.283748 3.573311084e-43
0.237464 0.146618 0.193587 3.573311084e-43
0.216767 0.046405 0.291118 3.573311084e-43
0.230902 0.161925 0.228197 3.573311084e-43
0.233771 0.148625 0.219674 3.573311084e-43
0.235002 0.157783 0.210217 3.573311084e-43
0.233180 0.151940 0.216305 3.573311084e-43
0.247771 0.168974 0.205219 3.573311084e-43
0.225881 0.153513 0.206616 3.573311084e-43
0.247070 0.157695 0.168814 3.573311084e-43
0.243425 0.149119 0.179738 3.573311084e-43
0.200967 0.027947 0.226974 3.573311084e-43
0.181997 0.078349 0.292229 3.573311084e-43
0.227156 0.150651 0.226611 3.573311084e-43
0.203297 0.054859 0.247297 3.573311084e-43
0.208632 0.122753 0.212520 3.573311084e-43
0.196505 0.053716 0.253714 3.573311084e-43
0.216838 0.158804 0.228821 3.573311084e-43
0.230613 0.168173 0.222260 3.573311084e-43
0.231629 0.157878 0.210878 3.573311084e-43
0.229163 0.152863 0.213716 3.573311084e-43
0.213214 0.161955 0.322395 3.573311084e-43
0.234971 0.145225 0.196429 3.573311084e-43
0.229856 0.145881 0.194313 3.573311084e-43
0.249441 0.141106 0.179070 3.573311084e-43
0.241327 0.114819 0.301258 3.573311084e-43
0.223021 0.075880 0.325570 3.573311084e-43
0.262785 0.109154 0.191800 3.573311084e-43
0.233504 0.065790 0.318319 3.573311084e-43
0.189849 0.045958 0.248294 3.573311084e-43
0.194403 0.046135 0.233393 3.573311084e-43
0.208505 0.106247 0.292059 3.573311084e-43
0.232029 0.159411 0.211845 3.573311084e-43
0.199713 0.052423 0.307453 3.573311084e-43
0.210033 -0.002389 0.279116 3.573311084e-43
0.244857 0.125971 0.301422 3.573311084e-43
0.247569 0.084544 0.262890 3.573311084e-43
0.239419 0.124342 0.306876 3.573311084e-43
0.230126 0.076101 0.205332 3.573311084e-43
0.218116 0.158416 0.222640 3.573311084e-43
0.218529 0.154633 0.213440 3.573311084e-43
0.215134 0.147818 0.205406 3.573311084e-43
0.220530 0.160312 0.200995 3.573311084e-43
0.229500 0.140028 0.204375 3.573311084e-43
0.234796 0.142403 0.199512 3.573311084e-43
0.227412 0.145503 0.200963 3.573311084e-43
0.238063 0.133706 0.189662 3.573311084e-43
0.232096 0.062679 0.277512 3.573311084e-43
0.238078 0.134615 0.193425 3.573311084e-43
0.191854 0.085588 0.282628 3.573311084e-43
0.244928 0.069388 0.234938 3.573311084e-43
0.197956 0.061168 0.264638 3.573311084e-43
0.223140 0.140327 0.202317 3.573311084e-43
0.214685 0.062336 0.274444 3.573311084e-43
0.251962 0.062298 0.245492 3.573311084e-43
0.242825 0.132717 0.184812 3.573311084e-43
0.182978 0.073983 0.288594 3.573311084e-43
0.216539 0.144348 0.212242 3.573311084e-43
0.222149 0.139561 0.203653 3.573311084e-43
0.223908 0.148863 0.191297 3.573311084e-43
0.266501 0.064568 0.247391 3.573311084e-43
0.201872 0.048113 0.302049 3.573311084e-43
0.255784 0.114099 0.310878 3.573311084e-43
0.229884 0.145591 0.193443 3.573311084e-43
0.229455 0.134680 0.190756 3.573311084e-43
0.220686 0.134957 0.188287 3.573311084e-43
0.242820 0.128088 0.188250 3.573311084e-43
0.205004 0.108221 0.317643 3.573311084e-43
0.255445 0.093113 0.306335 3.573311084e-43
0.197675 0.027586 0.240666 3.573311084e-43
0.250178 0.118574 0.316382 3.573311084e-43
0.211188 0.134987 0.208707 3.573311084e-43
0.214011 0.137527 0.210704 3.573311084e-43
0.225244 0.133715 0.199933 3.573311084e-43
0.218355 0.175416 0.273634 3.573311084e-43
0.226518 0.138037 0.195482 3.573311084e-43
0.227546 0.128886 0.195885 3.573311084e-43
0.250188 0.066941 0.223498 3.573311084e-43
0.229173 0.028215 0.292609 3.573311084e-43
0.225719 0.046648 0.291080 3.573311084e-43
0.238509 0.067909 0.242297 3.573311084e-43
0.224646 0.070926 0.310105 3.573311084e-43
0.204757 0.024058 0.230486 3.573311084e-43
0.208147 0.043550 0.243983 3.573311084e-43
0.202393 0.032976 0.233216 3.573311084e-43
0.206945 0.041479 0.242897 3.573311084e-43
0.210434 0.063346 0.298720 3.573311084e-43
0.282225 0.146646 0.217061 3.573311084e-43
0.290132 0.130295 0.215441 3.573311084e-43
0.311116 0.134182 0.208026 3.573311084e-43
0.292667 0.130871 0.216995 3.573311084e-43
0.258338 0.167632 0.212256 3.573311084e-43
0.264261 0.152200 0.194279 3.573311084e-43
0.257700 0.110197 0.171681 3.573311084e-43
0.277927 0.138815 0.211252 3.573311084e-43
0.302175 0.134780 0.205322 3.573311084e-43
0.292917 0.115066 0.217196 3.573311084e-43
0.247975 0.085384 0.195881 3.573311084e-43
0.273023 0.132811 0.184891 3.573311084e-43
0.284919 0.135093 0.191307 3.573311084e-43
0.276886 0.143457 0.195480 3.573311084e-43
0.207779 0.071267 0.272970 3.573311084e-43
0.284762 0.128544 0.213133 3.573311084e-43
0.288032 0.138450 0.211912 3.573311084e-43
0.288026 0.125921 0.208884 3.573311084e-43
0.212552 0.097711 0.316513 3.573311084e-43
0.249001 0.074990 0.243770 3.573311084e-43
0.269895 0.160979 0.189687 3.573311084e-43
0.276127 0.139139 0.186640 3.573311084e-43
0.270530 0.151794 0.194278 3.573311084e-43
0.256346 0.064979 0.316677 3.573311084e-43
0.249660 0.085775 0.194213 3.573311084e-43
0.212900 -0.014713 0.305505 3.573311084e-43
0.226154 0.076764 0.307172 3.573311084e-43
0.190513 0.014560 0.170110 3.573311084e-43
0.211032 0.088692 0.316722 3.573311084e-43
0.271237 0.157502 0.179631 3.573311084e-43
0.272948 0.144963 0.189547 3.573311084e-43
0.238993 0.075861 0.263179 3.573311084e-43
0.294311 0.138203 0.209302 3.573311084e-43
0.268341 0.076818 0.236587 3.573311084e-43
0.201793 0.028388 0.259324 3.573311084e-43
0.225272 0.022879 0.290091 3.573311084e-43
0.272184 0.140152 0.194874 3.573311084e-43
0.295047 0.130029 0.212809 3.573311084e-43
0.291439 0.118196 0.205126 3.573311084e-43
0.306776 0.106372 0.270884 3.573311084e-43
0.244953 0.124789 0.295532 3.573311084e-43
0.223561 0.035490 0.293446 3.573311084e-43
0.211950 0.068312 0.312762 3.573311084e-43
0.237530 0.094175 0.317714 3.573311084e-43
0.279455 0.120447 0.212857 3.573311084e-43
0.287559 0.130295 0.216794 3.573311084e-43
0.250748 0.093547 0.198365 3.573311084e-43
0.250587 0.124748 0.175425 3.573311084e-43
0.264335 0.136762 0.176082 3.573311084e-43
0.244437 0.135392 0.297365 3.573311084e-43
0.231635 0.011617 0.288395 3.573311084e-43
0.218019 0.059211 0.279105 3.573311084e-43
0.255324 0.069542 0.261419 3.573311084e-43
0.232377 0.014378 0.279775 3.573311084e-43
0.200637 0.046731 0.254008 3.573311084e-43
0.260881 0.145967 0.180568 3.573311084e-43
0.274127 0.147884 0.185298 3.573311084e-43
0.267345 0.145655 0.178832 3.573311084e-43
0.272559 0.131265 0.184949 3.573311084e-43
0.283252 0.137377 0.186342 3.573311084e-43
0.282605 0.128034 0.199983 3.573311084e-43
0.239759 0.060931 0.223107 3.573311084e-43
0.258820 0.068156 0.231456 3.573311084e-43
0.226483 0.001408 0.267492 3.573311084e-43
0.278105 0.139343 0.187139 3.573311084e-43
0.302093 0.054810 0.229739 3.573311084e-43
0.228896 0.104873 0.318401 3.573311084e-43
0.283856 0.119706 0.201923 3.573311084e-43
0.234418 0.065457 0.235966 3.573311084e-43
0.229683 0.071427 0.234668 3.573311084e-43
0.203158 0.052364 0.293333 3.573311084e-43
0.223920 0.079008 0.194386 3.573311084e-43
0.304506 0.117320 0.272981 3.573311084e-43
0.291368 0.126178 0.199387 3.573311084e-43
0.234363 0.092216 0.199067 3.573311084e-43
0.226035 0.073221 0.246439 3.573311084e-43
0.240195 0.069549 0.240455 3.573311084e-43
0.298910 0.113013 0.235719 3.573311084e-43
0.233158 0.059851 0.274423 3.573311084e-43
0.224028 0.076346 0.205748 3.573311084e-43
0.286361 0.121595 0.303140 3.573311084e-43
0.240157 0.074462 0.228384 3.573311084e-43
0.300954 0.132513 0.200403 3.573311084e-43
0.288391 0.108802 0.209784 3.573311084e-43
0.220291 0.080515 0.240075 3.573311084e-43
0.247393 0.084313 0.198938 3.573311084e-43
0.251102 0.130993 0.192190 3.573311084e-43
0.253481 0.071996 0.227445 3.573311084e-43
0.241464 0.117267 0.302597 3.573311084e-43
0.264394 0.146988 0.173019 3.573311084e-43
0.263720 0.142370 0.173110 3.573311084e-43
0.277682 0.137051 0.174908 3.573311084e-43
0.233841 0.075038 0.236077 3.573311084e-43
0.233145 0.079759 0.203422 3.573311084e-43
0.281256 0.120902 0.199579 3.573311084e-43
0.263151 0.093757 0.204148 3.573311084e-43
0.245637 0.064330 0.256533 3.573311084e-43
0.242779 0.106465 0.317136 3.573311084e-43
0.296996 0.108048 0.258077 3.573311084e-43
0.269724 0.122067 0.192276 3.573311084e-43
0.270124 0.125836 0.203582 3.573311084e-43
0.287098 0.123346 0.206145 3.573311084e-43
0.267196 0.069635 0.247281 3.573311084e-43
0.192472 0.104155 0.307668 3.573311084e-43
0.248930 0.181438 0.274029 3.573311084e-43
0.244283 0.059508 0.278490 3.573311084e-43
0.288506 0.127344 0.204198 3.573311084e-43
0.261303 0.075880 0.224156 3.573311084e-43
0.232100 0.066862 0.238840 3.573311084e-43
0.249048 0.082347 0.286357 3.573311084e-43
0.232126 0.091457 0.307553 3.573311084e-43
0.209066 0.065363 0.307608 3.573311084e-43
0.208914 0.056265 0.323181 3.573311084e-43
0.268097 0.130790 0.186944 3.573311084e-43
0.285449 0.109655 0.201187 3.573311084e-43
0.258488 0.091341 0.192069 3.573311084e-43
0.228212 -0.005799 0.275989 3.573311084e-43
0.232606 0.075601 0.202927 3.573311084e-43
0.226977 0.122670 0.317855 3.573311084e-43
0.257293 0.133217 0.184878 3.573311084e-43
0.264039 0.143729 0.181235 3.573311084e-43
0.265193 0.145334 0.174826 3.573311084e-43
0.252692 0.076608 0.219964 3.573311084e-43
0.248606 0.069556 0.297948 3.573311084e-43
0.214046 0.059357 0.276916 3.573311084e-43
0.280268 0.115672 0.198880 3.573311084e-43
0.274777 0.126717 0.198832 3.573311084e-43
0.229204 0.087607 0.207174 3.573311084e-43
0.239623 0.070777 0.263612 3.573311084e-43
0.266859 0.127609 0.172542 3.573311084e-43
0.259092 0.165504 0.307155 3.573311084e-43
0.244823 0.131991 0.310683 3.573311084e-43
0.257635 0.121821 0.306716 3.573311084e-43
0.218296 0.065440 0.276599 3.573311084e-43
0.268412 0.130749 0.205384 3.573311084e-43
0.284556 0.100238 0.186138 3.573311084e-43
0.262453 0.127281 0.192483 3.573311084e-43
0.235763 0.112541 0.312153 3.573311084e-43
0.197814 0.054250 0.305832 3.573311084e-43
0.276564 0.118941 0.201650 3.573311084e-43
0.281731 0.115198 0.217515 3.573311084e-43
0.255911 0.107444 0.199315 3.573311084e-43
0.211779 0.055966 0.290667 3.573311084e-43
0.246961 0.076480 0.210063 3.573311084e-43
0.223975 0.064793 0.237842 3.573311084e-43
0.252253 0.171626 0.275372 3.573311084e-43
0.263167 0.091094 0.208634 3.573311084e-43
0.246308 0.136271 0.183901 3.573311084e-43
0.246651 0.130511 0.177022 3.573311084e-43
0.260574 0.129210 0.180192 3.573311084e-43
0.266903 0.117163 0.196901 3.573311084e-43
0.227423 -0.009054 0.277013 3.573311084e-43
0.224061 0.005556 0.281767 3.573311084e-43
0.201190 0.072765 0.323494 3.573311084e-43
0.218936 0.027167 0.289913 3.573311084e-43
0.253059 0.127587 0.323237 3.573311084e-43
0.205180 0.028120 0.290505 3.573311084e-43
0.259883 0.111263 0.192243 3.573311084e-43
0.271521 0.130840 0.184922 3.573311084e-43
0.264212 0.103017 0.201146 3.573311084e-43
0.217578 0.066661 0.243609 3.573311084e-43
0.268077 0.108670 0.198161 3.573311084e-43
0.267347 0.117114 0.197280 3.573311084e-43
0.268049 0.106427 0.198947 3.573311084e-43
0.284467 0.105195 0.201690 3.573311084e-43
0.257412 0.073954 0.226499 3.573311084e-43
0.297867 0.105900 0.259258 3.573311084e-43
0.200827 0.103688 0.305206 3.573311084e-43
0.225519 0.083416 0.202159 3.573311084e-43
0.203692 0.108823 0.312908 3.573311084e-43
0.223090 0.020132 0.288026 3.573311084e-43
0.266551 0.089706 0.216385 3.573311084e-43
0.183322 0.077373 0.323091 3.573311084e-43
0.255902 0.119529 0.173461 3.573311084e-43
0.263175 0.121868 0.283210 3.573311084e-43
0.224474 0.064992 0.272438 3.573311084e-43
0.244371 0.125223 0.185394 3.573311084e-43
0.263271 0.125025 0.188545 3.573311084e-43
0.258210 0.107391 0.191596 3.573311084e-43
0.273782 0.123350 0.193523 3.573311084e-43
0.264116 0.105745 0.195250 3.573311084e-43
0.267948 0.107243 0.193955 3.573311084e-43
0.268540 0.107023 0.198074 3.573311084e-43
0.240262 0.130420 0.302804 3.573311084e-43
0.259469 0.077548 0.222355 3.573311084e-43
0.251321 0.079565 0.265759 3.573311084e-43
0.227781 0.025957 0.283769 3.573311084e-43
0.197713 0.024577 0.239335 3.573311084e-43
0.268164 0.074784 0.222987 3.573311084e-43
0.185862 0.068630 0.321066 3.573311084e-43
0.244781 0.080085 0.320342 3.573311084e-43
0.227652 0.071778 0.215976 3.573311084e-43
0.205743 0.020761 0.270726 3.573311084e-43
0.247923 0.129473 0.191797 3.573311084e-43
0.242631 0.120675 0.186364 3.573311084e-43
0.249040 0.112937 0.187936 3.573311084e-43
0.264244 0.090280 0.203827 3.573311084e-43
0.215319 0.049258 0.286678 3.573311084e-43
0.288269 0.127174 0.268302 3.573311084e-43
0.221008 0.033669 0.296676 3.573311084e-43
0.216978 0.001674 0.267552 3.573311084e-43
0.215264 -0.012701 0.273187 3.573311084e-43
0.219049 -0.003196 0.283392 3.573311084e-43
0.203789 0.132651 0.243403 3.573311084e-43
0.213226 -0.005511 0.289614 3.573311084e-43
0.199036 0.045774 0.308090 3.573311084e-43
0.198343 0.042820 0.304394 3.573311084e-43
0.241444 0.074346 0.305811 3.573311084e-43
0.216495 0.004306 0.268218 3.573311084e-43
0.216606 0.009962 0.290117 3.573311084e-43
0.220848 0.080070 0.325107 3.573311084e-43
0.222986 0.088615 0.193819 3.573311084e-43
0.198336 0.060116 0.321204 3.573311084e-43
0.256364 0.126175 0.182574 3.573311084e-43
0.228257 0.104819 0.180625 3.573311084e-43
0.223036 0.089318 0.199523 3.573311084e-43
0.195242 0.049797 0.279856 3.573311084e-43
0.229900 0.091302 0.200689 3.573311084e-43
0.220573 0.014073 0.284490 3.573311084e-43
0.242290 0.123486 0.181198 3.573311084e-43
0.257245 0.133909 0.173474 3.573311084e-43
0.221125 0.089687 0.208019 3.573311084e-43
0.203284 0.005892 0.282100 3.573311084e-43
0.206117 0.005984 0.275458 3.573311084e-43
0.208140 0.084874 0.234670 3.573311084e-43
0.254030 0.133499 0.179471 3.573311084e-43
0.221056 0.103412 0.193087 3.573311084e-43
0.216514 0.084447 0.206557 3.573311084e-43
0.202852 0.080851 0.272877 3.573311084e-43
0.217223 0.013848 0.286175 3.573311084e-43
0.218626 0.099010 0.189941 3.573311084e-43
0.213735 0.077945 0.208644 3.573311084e-43
0.190741 0.065886 0.312528 3.573311084e-43
0.224036 0.096754 0.197866 3.573311084e-43
0.212392 0.075385 0.219029 3.573311084e-43
0.215332 0.108083 0.320337 3.573311084e-43
0.224466 -0.005389 0.204087 3.573311084e-43
0.210554 0.020391 0.288468 3.573311084e-43
0.223386 0.014310 0.292380 3.573311084e-43
0.257717 0.085754 0.210980 3.573311084e-43
0.209848 0.094179 0.206944 3.573311084e-43
0.217207 0.086573 0.206203 3.573311084e-43
0.200706 0.015999 0.289131 3.573311084e-43
0.204500 0.021644 0.282343 3.573311084e-43
0.242467 0.140092 0.185696 3.573311084e-43
0.216637 0.087144 0.213253 3.573311084e-43
0.244485 0.081978 0.298707 3.573311084e-43
0.227243 0.104446 0.321911 3.573311084e-43
0.229466 0.090572 0.202459 3.573311084e-43
0.200148 0.019617 0.323170 3.573311084e-43
0.214371 0.076269 0.219493 3.573311084e-43
0.216221 0.129834 0.263307 3.573311084e-43
0.205687 0.025666 0.276919 3.573311084e-43
0.202187 0.058555 0.308243 3.573311084e-43
0.277565 0.136487 0.296578 3.573311084e-43
0.268885 0.136772 0.298126 3.573311084e-43
0.183829 0.053101 0.263429 3.573311084e-43
0.263941 0.146895 0.310588 3.573311084e-43
0.264686 0.158419 0.296898 3.573311084e-43
0.258477 0.155735 0.304609 3.573311084e-43
0.222177 0.108184 0.323072 3.573311084e-43
0.251702 0.076653 0.255270 3.573311084e-43
0.280832 0.141273 0.297654 3.573311084e-43
0.277100 0.121177 0.296994 3.573311084e-43
0.275828 0.133491 0.306371 3.573311084e-43
0.228034 0.123607 0.311799 3.573311084e-43
0.219820 0.117192 0.310404 3.573311084e-43
0.277368 0.120147 0.307263 3.573311084e-43
0.277419 0.138194 0.295072 3.573311084e-43
0.254546 0.144243 0.306398 3.573311084e-43
0.243739 0.160593 0.299564 3.573311084e-43
0.224208 0.121589 0.301982 3.573311084e-43
0.173982 0.089181 0.314727 3.573311084e-43
0.216488 0.108571 0.320746 3.573311084e-43
0.171220 0.074201 0.317830 3.573311084e-43
0.261773 0.161640 0.279942 3.573311084e-43
0.272291 0.138775 0.301836 3.573311084e-43
0.268146 0.135446 0.298005 3.573311084e-43
0.255368 0.043703 0.217257 3.573311084e-43
0.187787 0.084914 0.314633 3.573311084e-43
0.245960 0.153830 0.274390 3.573311084e-43
0.233610 0.150276 0.264054 3.573311084e-43
0.244927 0.081068 0.197425 3.573311084e-43
0.243201 0.150146 0.295642 3.573311084e-43
0.192494 0.095814 0.317398 3.573311084e-43
0.253364 0.082344 0.205489 3.573311084e-43
0.222562 0.103032 0.306536 3.573311084e-43
0.262982 0.139058 0.310810 3.573311084e-43
0.212091 0.020830 0.248972 3.573311084e-43
0.281081 0.034590 0.271495 3.573311084e-43
0.244352 0.170996 0.263520 3.573311084e-43
0.233898 0.109998 0.316486 3.573311084e-43
0.281655 0.128386 0.302520 3.573311084e-43
0.288467 0.133252 0.302726 3.573311084e-43
0.266215 0.129515 0.302653 3.573311084e-43
0.271655 0.127387 0.297495 3.573311084e-43
0.256684 0.139185 0.305674 3.573311084e-43
0.191941 0.092055 0.307508 3.573311084e-43
0.223740 0.093568 0.315630 3.573311084e-43
0.230330 0.110705 0.307528 3.573311084e-43
0.198230 0.133153 0.257040 3.573311084e-43
0.179340 0.086829 0.311099 3.573311084e-43
0.268550 0.140163 0.285631 3.573311084e-43
0.263292 0.125792 0.298453 3.573311084e-43
0.236149 0.096063 0.311680 3.573311084e-43
0.180018 0.042155 0.270259 3.573311084e-43
0.257072 0.145042 0.295756 3.573311084e-43
0.275108 0.125396 0.280111 3.573311084e-43
0.187467 0.081384 0.313647 3.573311084e-43
0.249444 0.161454 0.278470 3.573311084e-43
0.190519 0.099026 0.313902 3.573311084e-43
0.198558 0.124054 0.243607 3.573311084e-43
0.269179 0.121478 0.280266 3.573311084e-43
0.265943 0.080766 0.214813 3.573311084e-43
0.232316 0.158813 0.262176 3.573311084e-43
0.245867 0.144241 0.286517 3.573311084e-43
0.253233 0.138301 0.287763 3.573311084e-43
0.230526 0.136302 0.290481 3.573311084e-43
0.245901 0.144417 0.286662 3.573311084e-43
0.238829 0.156943 0.276835 3.573311084e-43
0.228095 0.059691 0.310887 3.573311084e-43
0.225686 0.155761 0.262805 3.573311084e-43
0.251928 0.072555 0.253292 3.573311084e-43
0.234379 0.139621 0.262628 3.573311084e-43
0.234088 0.139231 0.258419 3.573311084e-43
0.235393 0.152838 0.260059 3.573311084e-43
0.196389 0.031658 0.245002 3.573311084e-43
0.203371 0.042267 0.233277 3.573311084e-43
0.187887 0.040581 0.272839 3.573311084e-43
0.212022 0.046062 0.284200 3.573311084e-43
0.241655 0.129748 0.305855 3.573311084e-43
0.278718 0.068747 0.244684 3.573311084e-43
0.241245 0.066389 0.276081 3.573311084e-43
0.211178 0.067243 0.266324 3.573311084e-43
0.234173 0.157806 0.258218 3.573311084e-43
0.219921 0.149544 0.256436 3.573311084e-43
0.213869 0.040739 0.323745 3.573311084e-43
0.222335 0.049342 0.291309 3.573311084e-43
0.223815 0.061740 0.281332 3.573311084e-43
0.248364 0.063214 0.259241 3.573311084e-43
0.208849 0.031601 0.232703 3.573311084e-43
0.263754 0.129115 0.296973 3.573311084e-43
0.307910 0.112153 0.280194 3.573311084e-43
0.295147 0.115474 0.276600 3.573311084e-43
0.302347 0.109225 0.276184 3.573311084e-43
0.293081 0.122621 0.278506 3.573311084e-43
0.284806 0.118540 0.288900 3.573311084e-43
0.307201 0.117076 0.231551 3.573311084e-43
0.248105 0.083725 0.218199 3.573311084e-43
0.282918 0.120009 0.303959 3.573311084e-43
0.194941 0.075595 0.320296 3.573311084e-43
0.295929 0.107601 0.276071 3.573311084e-43
0.266169 0.095170 0.187819 3.573311084e-43
0.187884 0.134395 0.270718 3.573311084e-43
0.190462 0.087631 0.320584 3.573311084e-43
0.278420 0.122040 0.304643 3.573311084e-43
0.208871 0.019403 0.291014 3.573311084e-43
0.309112 0.109007 0.273022 3.573311084e-43
0.284140 0.120952 0.298954 3.573311084e-43
0.264805 0.139595 0.291760 3.573311084e-43
0.212010 0.056673 0.307812 3.573311084e-43
0.285764 0.115352 0.286602 3.573311084e-43
0.266045 0.139086 0.299978 3.573311084e-43
0.297395 0.112154 0.274726 3.573311084e-43
0.285986 0.114772 0.266912 3.573311084e-43
0.289637 0.117216 0.277205 3.573311084e-43
0.311242 -0.006937 0.322049 3.573311084e-43
0.265162 0.131092 0.281057 3.573311084e-43
0.249749 0.145179 0.291510 3.573311084e-43
0.260795 0.148621 0.300111 3.573311084e-43
0.303200 0.108943 0.260117 3.573311084e-43
0.299483 0.108030 0.277002 3.573311084e-43
0.238574 0.065443 0.260762 3.573311084e-43
0.286988 0.121654 0.295518 3.573311084e-43
0.188639 0.061236 0.316058 3.573311084e-43
0.287393 0.124717 0.275641 3.573311084e-43
0.223107 0.078261 0.212013 3.573311084e-43
0.232240 0.071251 0.204753 3.573311084e-43
0.284917 0.119701 0.278779 3.573311084e-43
0.265443 0.117589 0.291407 3.573311084e-43
0.216070 0.033272 0.295373 3.573311084e-43
0.216046 0.002863 0.278896 3.573311084e-43
0.270011 0.118823 0.287034 3.573311084e-43
0.258450 0.143905 0.291401 3.573311084e-43
0.241286 0.061445 0.242103 3.573311084e-43
0.292361 0.117789 0.256799 3.573311084e-43
0.260075 0.094495 0.214279 3.573311084e-43
0.255894 0.082093 0.210246 3.573311084e-43
0.240088 0.065471 0.209638 3.573311084e-43
0.287265 0.113869 0.267404 3.573311084e-43
0.290479 0.117427 0.259213 3.573311084e-43
0.287237 0.116464 0.270290 3.573311084e-43
0.245420 0.083300 0.227571 3.573311084e-43
