# This PCD file was generated using the MATLAB® pcwrite function
# from Computer Vision System Toolbox®.
# .PCD v.7 - Point Cloud Data file format
VERSION .7
FIELDS x y z rgb
SIZE 4 4 4 4
TYPE F F F F
COUNT 1 1 1 1
WIDTH 1109
HEIGHT 1
VIEWPOINT 0 0 0 1 0 0 0
POINTS 1109
DATA ascii
0.361175 0.392986 0.162837 3.573311084e-43
0.348316 0.413778 0.192669 3.573311084e-43
0.305186 0.419324 0.181702 3.573311084e-43
0.300931 0.419751 0.195821 3.573311084e-43
0.298899 0.410953 0.184519 3.573311084e-43
0.299023 0.417187 0.204914 3.573311084e-43
0.313024 0.406163 0.198075 3.573311084e-43
0.307534 0.407048 0.207278 3.573311084e-43
0.311489 0.393480 0.203161 3.573311084e-43
0.308246 0.389616 0.217881 3.573311084e-43
0.314318 0.393298 0.216871 3.573311084e-43
0.303683 0.371823 0.241180 3.573311084e-43
0.318471 0.364618 0.232987 3.573311084e-43
0.317985 0.368014 0.234972 3.573311084e-43
0.323533 0.357209 0.236894 3.573311084e-43
0.358538 0.438122 0.191225 3.573311084e-43
0.383696 0.465518 0.171375 3.573311084e-43
0.328956 0.464387 0.172689 3.573311084e-43
0.418010 0.460090 0.178402 3.573311084e-43
0.378924 0.466698 0.185467 3.573311084e-43
0.288014 0.388614 0.166214 3.573311084e-43
0.365925 0.345099 0.238602 3.573311084e-43
0.349915 0.409466 0.163135 3.573311084e-43
0.306026 0.405420 0.192164 3.573311084e-43
0.313602 0.407464 0.200116 3.573311084e-43
0.312143 0.405853 0.200330 3.573311084e-43
0.310999 0.399087 0.205376 3.573311084e-43
0.313903 0.359460 0.234581 3.573311084e-43
0.377941 0.458738 0.186281 3.573311084e-43
0.352167 0.436000 0.153397 3.573311084e-43
0.399842 0.424203 0.225022 3.573311084e-43
0.296216 0.432715 0.201013 3.573311084e-43
0.309997 0.420270 0.181746 3.573311084e-43
0.332230 0.469627 0.174694 3.573311084e-43
0.317154 0.396120 0.214199 3.573311084e-43
0.324034 0.387799 0.218401 3.573311084e-43
0.314519 0.380034 0.223705 3.573311084e-43
0.313170 0.381734 0.224563 3.573311084e-43
0.327450 0.385371 0.235241 3.573311084e-43
0.329702 0.373527 0.240981 3.573311084e-43
0.329279 0.368213 0.243257 3.573311084e-43
0.332825 0.355634 0.238636 3.573311084e-43
0.313877 0.433409 0.185653 3.573311084e-43
0.313240 0.432574 0.191856 3.573311084e-43
0.305913 0.416632 0.189776 3.573311084e-43
0.313911 0.424278 0.197168 3.573311084e-43
0.313254 0.427746 0.197210 3.573311084e-43
0.311014 0.400707 0.204494 3.573311084e-43
0.311120 0.393825 0.215833 3.573311084e-43
0.322557 0.398959 0.210120 3.573311084e-43
0.330619 0.362739 0.237709 3.573311084e-43
0.358627 0.429364 0.206452 3.573311084e-43
0.335109 0.352640 0.248262 3.573311084e-43
0.361969 0.326032 0.215986 3.573311084e-43
0.317441 0.417602 0.194937 3.573311084e-43
0.321718 0.382839 0.227192 3.573311084e-43
0.329620 0.396334 0.222981 3.573311084e-43
0.334485 0.373454 0.235488 3.573311084e-43
0.338026 0.362582 0.238303 3.573311084e-43
0.330105 0.369512 0.236538 3.573311084e-43
0.330604 0.350868 0.248004 3.573311084e-43
0.376623 0.435484 0.235122 3.573311084e-43
0.363062 0.435749 0.171833 3.573311084e-43
0.376898 0.395001 0.167002 3.573311084e-43
0.418058 0.425662 0.231683 3.573311084e-43
0.378415 0.359028 0.202186 3.573311084e-43
0.366813 0.450166 0.186238 3.573311084e-43
0.387449 0.437257 0.216731 3.573311084e-43
0.349547 0.429680 0.173849 3.573311084e-43
0.393584 0.429531 0.217156 3.573311084e-43
0.305451 0.427474 0.200117 3.573311084e-43
0.313822 0.433879 0.198050 3.573311084e-43
0.322452 0.421394 0.200672 3.573311084e-43
0.318417 0.412786 0.198355 3.573311084e-43
0.322734 0.413543 0.210875 3.573311084e-43
0.311860 0.407351 0.207358 3.573311084e-43
0.326951 0.405233 0.215163 3.573311084e-43
0.338467 0.388012 0.236164 3.573311084e-43
0.330901 0.386411 0.229969 3.573311084e-43
0.334120 0.361078 0.243548 3.573311084e-43
0.381476 0.349013 0.206685 3.573311084e-43
0.302132 0.441651 0.196592 3.573311084e-43
0.372282 0.426814 0.197853 3.573311084e-43
0.351594 0.410339 0.155736 3.573311084e-43
0.324817 0.450555 0.180497 3.573311084e-43
0.362728 0.391955 0.165796 3.573311084e-43
0.350884 0.405793 0.147805 3.573311084e-43
0.276861 0.346000 0.193776 3.573311084e-43
0.283989 0.335633 0.183288 3.573311084e-43
0.342522 0.442454 0.174002 3.573311084e-43
0.395041 0.423802 0.222126 3.573311084e-43
0.351415 0.353339 0.254173 3.573311084e-43
0.400416 0.413165 0.220775 3.573311084e-43
0.367348 0.439730 0.205171 3.573311084e-43
0.298066 0.319195 0.206957 3.573311084e-43
0.340732 0.338889 0.241101 3.573311084e-43
0.354804 0.423821 0.170979 3.573311084e-43
0.272697 0.371888 0.162244 3.573311084e-43
0.280751 0.341266 0.199560 3.573311084e-43
0.282066 0.334754 0.184545 3.573311084e-43
0.309931 0.432122 0.195693 3.573311084e-43
0.321148 0.442844 0.213787 3.573311084e-43
0.299275 0.314977 0.197589 3.573311084e-43
0.324131 0.421508 0.205243 3.573311084e-43
0.401546 0.424033 0.232336 3.573311084e-43
0.391801 0.441455 0.170739 3.573311084e-43
0.330399 0.343891 0.246730 3.573311084e-43
0.363776 0.434232 0.213631 3.573311084e-43
0.297299 0.331077 0.199792 3.573311084e-43
0.302776 0.439600 0.188058 3.573311084e-43
0.324558 0.429121 0.213745 3.573311084e-43
0.282834 0.364082 0.161902 3.573311084e-43
0.381558 0.371522 0.179922 3.573311084e-43
0.412236 0.431408 0.235889 3.573311084e-43
0.305356 0.313524 0.197613 3.573311084e-43
0.360404 0.421969 0.166588 3.573311084e-43
0.341193 0.349705 0.254205 3.573311084e-43
0.323389 0.439097 0.210893 3.573311084e-43
0.406673 0.422272 0.220016 3.573311084e-43
0.389254 0.424435 0.227819 3.573311084e-43
0.304206 0.326474 0.204797 3.573311084e-43
0.301517 0.321654 0.199521 3.573311084e-43
0.300820 0.319298 0.201805 3.573311084e-43
0.293872 0.317156 0.209153 3.573311084e-43
0.345759 0.336574 0.241557 3.573311084e-43
0.312369 0.312744 0.204991 3.573311084e-43
0.405870 0.424495 0.227226 3.573311084e-43
0.307859 0.437747 0.208942 3.573311084e-43
0.342731 0.408733 0.149054 3.573311084e-43
0.322446 0.432234 0.213448 3.573311084e-43
0.373924 0.427594 0.208240 3.573311084e-43
0.396702 0.434995 0.232990 3.573311084e-43
0.392899 0.434411 0.219803 3.573311084e-43
0.307005 0.437463 0.216894 3.573311084e-43
0.309753 0.438016 0.208345 3.573311084e-43
0.350773 0.427171 0.160640 3.573311084e-43
0.373651 0.438479 0.221340 3.573311084e-43
0.337457 0.423762 0.213381 3.573311084e-43
0.368033 0.325499 0.203265 3.573311084e-43
0.318881 0.311507 0.212489 3.573311084e-43
0.314541 0.446063 0.207241 3.573311084e-43
0.348215 0.419865 0.168550 3.573311084e-43
0.318878 0.298524 0.215627 3.573311084e-43
0.301424 0.410619 0.151359 3.573311084e-43
0.306445 0.441430 0.211327 3.573311084e-43
0.362022 0.433714 0.221546 3.573311084e-43
0.367835 0.440634 0.215586 3.573311084e-43
0.317183 0.417528 0.205751 3.573311084e-43
0.323526 0.434335 0.214828 3.573311084e-43
0.323321 0.306995 0.213003 3.573311084e-43
0.339785 0.302523 0.204003 3.573311084e-43
0.411393 0.414966 0.226018 3.573311084e-43
0.416128 0.431668 0.219162 3.573311084e-43
0.335178 0.358355 0.242507 3.573311084e-43
0.304336 0.442354 0.204643 3.573311084e-43
0.315812 0.294148 0.216231 3.573311084e-43
0.343080 0.306497 0.217003 3.573311084e-43
0.336187 0.302147 0.223219 3.573311084e-43
0.404377 0.426319 0.226352 3.573311084e-43
0.345274 0.345700 0.244219 3.573311084e-43
0.331083 0.434003 0.220569 3.573311084e-43
0.327065 0.442532 0.218527 3.573311084e-43
0.397280 0.419530 0.224317 3.573311084e-43
0.393376 0.445268 0.234410 3.573311084e-43
0.299284 0.329315 0.205756 3.573311084e-43
0.317676 0.433099 0.217509 3.573311084e-43
0.323769 0.294982 0.212207 3.573311084e-43
0.387646 0.367790 0.206638 3.573311084e-43
0.384697 0.437936 0.222923 3.573311084e-43
0.388513 0.439040 0.219079 3.573311084e-43
0.371298 0.429262 0.210061 3.573311084e-43
0.380296 0.432875 0.228745 3.573311084e-43
0.376519 0.426506 0.226667 3.573311084e-43
0.302936 0.323898 0.221492 3.573311084e-43
0.303086 0.318259 0.212584 3.573311084e-43
0.314531 0.316061 0.216559 3.573311084e-43
0.323097 0.324478 0.207576 3.573311084e-43
0.331331 0.358288 0.252540 3.573311084e-43
0.340119 0.295383 0.231453 3.573311084e-43
0.305031 0.438679 0.197351 3.573311084e-43
0.380872 0.432069 0.216683 3.573311084e-43
0.388226 0.351283 0.197150 3.573311084e-43
0.321298 0.416040 0.199153 3.573311084e-43
0.321455 0.436141 0.212295 3.573311084e-43
0.356741 0.425364 0.201103 3.573311084e-43
0.363600 0.426101 0.213584 3.573311084e-43
0.389968 0.443609 0.218951 3.573311084e-43
0.375259 0.341146 0.217327 3.573311084e-43
0.301591 0.326476 0.213563 3.573311084e-43
0.341187 0.295607 0.211947 3.573311084e-43
0.313456 0.321864 0.216585 3.573311084e-43
0.339485 0.298450 0.226729 3.573311084e-43
0.294518 0.393400 0.142869 3.573311084e-43
0.410556 0.464936 0.176626 3.573311084e-43
0.295526 0.323620 0.216629 3.573311084e-43
0.305588 0.327054 0.214688 3.573311084e-43
0.314912 0.315024 0.226880 3.573311084e-43
0.326400 0.322073 0.223232 3.573311084e-43
0.331488 0.309926 0.215128 3.573311084e-43
0.338169 0.333295 0.243125 3.573311084e-43
0.299676 0.459449 0.197003 3.573311084e-43
0.341213 0.311064 0.225817 3.573311084e-43
0.335096 0.339603 0.244302 3.573311084e-43
0.397253 0.426357 0.227650 3.573311084e-43
0.337937 0.444822 0.216196 3.573311084e-43
0.349434 0.435645 0.204791 3.573311084e-43
0.330872 0.449958 0.207755 3.573311084e-43
0.375156 0.434235 0.219739 3.573311084e-43
0.316550 0.439465 0.201715 3.573311084e-43
0.333728 0.334840 0.232715 3.573311084e-43
0.396518 0.465241 0.177951 3.573311084e-43
0.323223 0.320548 0.224447 3.573311084e-43
0.371719 0.442083 0.189460 3.573311084e-43
0.306499 0.338691 0.222367 3.573311084e-43
0.321173 0.326836 0.217172 3.573311084e-43
0.315126 0.328418 0.222330 3.573311084e-43
0.319856 0.332886 0.219371 3.573311084e-43
0.315243 0.324653 0.227874 3.573311084e-43
0.333276 0.315250 0.215911 3.573311084e-43
0.340733 0.305467 0.232865 3.573311084e-43
0.346849 0.297031 0.229782 3.573311084e-43
0.396249 0.428228 0.231078 3.573311084e-43
0.336197 0.436088 0.214816 3.573311084e-43
0.311336 0.330924 0.223519 3.573311084e-43
0.371013 0.430503 0.221592 3.573311084e-43
0.331694 0.346001 0.233566 3.573311084e-43
0.370169 0.427418 0.217080 3.573311084e-43
0.307252 0.344479 0.226693 3.573311084e-43
0.309767 0.343462 0.222030 3.573311084e-43
0.312674 0.328999 0.232295 3.573311084e-43
0.312007 0.330502 0.216405 3.573311084e-43
0.321269 0.323750 0.224989 3.573311084e-43
0.331257 0.322251 0.225253 3.573311084e-43
0.340678 0.322178 0.222813 3.573311084e-43
0.340898 0.301477 0.225130 3.573311084e-43
0.311234 0.398967 0.163777 3.573311084e-43
0.331658 0.449721 0.164100 3.573311084e-43
0.376626 0.324854 0.202226 3.573311084e-43
0.339274 0.446613 0.163358 3.573311084e-43
0.386460 0.442570 0.227040 3.573311084e-43
0.398567 0.426980 0.235737 3.573311084e-43
0.310322 0.432260 0.199886 3.573311084e-43
0.319021 0.329100 0.232411 3.573311084e-43
0.358242 0.458482 0.188383 3.573311084e-43
0.414029 0.471143 0.176331 3.573311084e-43
0.306535 0.391134 0.145770 3.573311084e-43
0.373323 0.390909 0.188727 3.573311084e-43
0.297650 0.421852 0.160828 3.573311084e-43
0.379510 0.369887 0.218557 3.573311084e-43
0.312936 0.347428 0.228284 3.573311084e-43
0.309635 0.350529 0.229270 3.573311084e-43
0.325315 0.326598 0.240225 3.573311084e-43
0.329762 0.329192 0.225118 3.573311084e-43
0.331371 0.326474 0.227828 3.573311084e-43
0.333985 0.332436 0.231673 3.573311084e-43
0.339430 0.325183 0.239695 3.573311084e-43
0.359756 0.318721 0.229756 3.573311084e-43
0.363930 0.415365 0.186423 3.573311084e-43
0.337494 0.322363 0.230778 3.573311084e-43
0.354074 0.432114 0.213271 3.573311084e-43
0.383221 0.364671 0.203116 3.573311084e-43
0.355250 0.438977 0.219460 3.573311084e-43
0.337180 0.313522 0.232814 3.573311084e-43
0.366005 0.432694 0.203825 3.573311084e-43
0.376788 0.371403 0.186206 3.573311084e-43
0.346246 0.314644 0.221607 3.573311084e-43
0.323847 0.449910 0.201233 3.573311084e-43
0.312634 0.335657 0.233719 3.573311084e-43
0.323463 0.345774 0.235696 3.573311084e-43
0.323419 0.336898 0.233138 3.573311084e-43
0.336117 0.329036 0.233457 3.573311084e-43
0.354839 0.454038 0.192983 3.573311084e-43
0.320180 0.404270 0.147379 3.573311084e-43
0.345455 0.329592 0.233997 3.573311084e-43
0.340610 0.313763 0.230012 3.573311084e-43
0.341909 0.327840 0.229301 3.573311084e-43
0.354756 0.324284 0.229430 3.573311084e-43
0.294474 0.448275 0.195415 3.573311084e-43
0.335058 0.438791 0.152802 3.573311084e-43
0.397299 0.423102 0.229576 3.573311084e-43
0.300931 0.398573 0.160133 3.573311084e-43
0.321235 0.348882 0.231076 3.573311084e-43
0.331552 0.344013 0.247547 3.573311084e-43
0.327673 0.335541 0.233402 3.573311084e-43
0.329992 0.330638 0.251688 3.573311084e-43
0.342723 0.332783 0.238180 3.573311084e-43
0.340908 0.323435 0.233607 3.573311084e-43
0.383801 0.371865 0.189447 3.573311084e-43
0.372632 0.445021 0.176731 3.573311084e-43
0.359374 0.443713 0.188128 3.573311084e-43
0.356341 0.400626 0.185110 3.573311084e-43
0.336063 0.442567 0.162442 3.573311084e-43
0.421023 0.430816 0.216945 3.573311084e-43
0.392161 0.414739 0.213720 3.573311084e-43
0.404218 0.417238 0.222074 3.573311084e-43
0.407989 0.411848 0.226178 3.573311084e-43
0.352151 0.461626 0.172584 3.573311084e-43
0.338051 0.316820 0.177901 3.573311084e-43
0.342399 0.316370 0.167942 3.573311084e-43
0.340738 0.299822 0.171973 3.573311084e-43
0.343003 0.316249 0.163575 3.573311084e-43
0.307121 0.312462 0.195486 3.573311084e-43
0.332486 0.299911 0.195871 3.573311084e-43
0.345261 0.295393 0.193648 3.573311084e-43
0.353469 0.301200 0.186807 3.573311084e-43
0.340399 0.316383 0.159203 3.573311084e-43
0.352586 0.311985 0.159402 3.573311084e-43
0.375419 0.347966 0.195754 3.573311084e-43
0.344444 0.296700 0.195086 3.573311084e-43
0.348849 0.309927 0.192090 3.573311084e-43
0.335299 0.312319 0.186061 3.573311084e-43
0.363426 0.419846 0.199808 3.573311084e-43
0.339297 0.308980 0.171398 3.573311084e-43
0.349939 0.317345 0.169589 3.573311084e-43
0.358522 0.302053 0.169762 3.573311084e-43
0.304751 0.452520 0.190124 3.573311084e-43
0.383258 0.388359 0.177257 3.573311084e-43
0.350015 0.302227 0.214106 3.573311084e-43
0.343481 0.288723 0.209942 3.573311084e-43
0.331105 0.289481 0.206683 3.573311084e-43
0.342450 0.308168 0.191490 3.573311084e-43
0.377625 0.347580 0.199658 3.573311084e-43
0.337200 0.305807 0.181934 3.573311084e-43
0.326463 0.442728 0.168516 3.573311084e-43
0.409605 0.460741 0.171767 3.573311084e-43
0.321522 0.436616 0.172834 3.573311084e-43
0.335092 0.281251 0.210425 3.573311084e-43
0.346047 0.289693 0.206498 3.573311084e-43
0.373762 0.417712 0.194804 3.573311084e-43
0.355586 0.310595 0.175584 3.573311084e-43
0.381294 0.361332 0.175056 3.573311084e-43
0.392168 0.436139 0.216969 3.573311084e-43
0.398193 0.453055 0.173639 3.573311084e-43
0.348995 0.301956 0.189807 3.573311084e-43
0.349559 0.310816 0.171146 3.573311084e-43
0.354938 0.315484 0.174882 3.573311084e-43
0.336280 0.349578 0.118210 3.573311084e-43
0.302030 0.395578 0.157355 3.573311084e-43
0.375225 0.460891 0.180016 3.573311084e-43
0.347572 0.453596 0.184213 3.573311084e-43
0.340286 0.290795 0.210580 3.573311084e-43
0.358543 0.312605 0.170418 3.573311084e-43
0.354380 0.312685 0.175283 3.573311084e-43
0.380856 0.333944 0.204600 3.573311084e-43
0.360550 0.308262 0.225463 3.573311084e-43
0.358573 0.310984 0.201350 3.573311084e-43
0.290810 0.395147 0.173471 3.573311084e-43
0.411210 0.446172 0.181640 3.573311084e-43
0.365574 0.421791 0.201804 3.573311084e-43
0.364904 0.393231 0.176056 3.573311084e-43
0.411842 0.440566 0.175926 3.573311084e-43
0.372423 0.438796 0.221956 3.573311084e-43
0.341312 0.294388 0.222187 3.573311084e-43
0.342566 0.287093 0.204783 3.573311084e-43
0.346514 0.294947 0.205419 3.573311084e-43
0.349225 0.289323 0.207480 3.573311084e-43
0.356793 0.302804 0.189515 3.573311084e-43
0.358286 0.306454 0.188343 3.573311084e-43
0.384351 0.375770 0.205888 3.573311084e-43
0.378593 0.379329 0.183203 3.573311084e-43
0.421115 0.458344 0.173591 3.573311084e-43
0.338368 0.290081 0.198363 3.573311084e-43
0.352449 0.302162 0.182542 3.573311084e-43
0.358971 0.311354 0.190279 3.573311084e-43
0.361772 0.308671 0.174979 3.573311084e-43
0.369869 0.386701 0.195545 3.573311084e-43
0.369153 0.378759 0.204536 3.573311084e-43
0.368959 0.447612 0.197941 3.573311084e-43
0.379705 0.364070 0.221076 3.573311084e-43
0.339268 0.347444 0.131334 3.573311084e-43
0.348117 0.309183 0.189699 3.573311084e-43
0.372160 0.353924 0.219164 3.573311084e-43
0.374254 0.408520 0.200287 3.573311084e-43
0.378281 0.390810 0.191577 3.573311084e-43
0.355794 0.339867 0.153036 3.573311084e-43
0.353317 0.409152 0.164325 3.573311084e-43
0.371887 0.367849 0.224744 3.573311084e-43
0.297931 0.377389 0.128417 3.573311084e-43
0.379120 0.379739 0.199225 3.573311084e-43
0.354854 0.309978 0.187734 3.573311084e-43
0.368475 0.307223 0.187438 3.573311084e-43
0.364888 0.389396 0.198623 3.573311084e-43
0.373417 0.351705 0.207427 3.573311084e-43
0.358855 0.309663 0.220692 3.573311084e-43
0.383784 0.367078 0.185707 3.573311084e-43
0.291163 0.414064 0.167769 3.573311084e-43
0.338818 0.298128 0.216627 3.573311084e-43
0.350319 0.291352 0.207781 3.573311084e-43
0.346627 0.295278 0.206386 3.573311084e-43
0.371575 0.396975 0.211448 3.573311084e-43
0.387684 0.359585 0.211731 3.573311084e-43
0.359170 0.304644 0.189518 3.573311084e-43
0.368403 0.343310 0.193853 3.573311084e-43
0.363657 0.401068 0.187200 3.573311084e-43
0.301986 0.412056 0.155985 3.573311084e-43
0.354258 0.338761 0.133422 3.573311084e-43
0.363458 0.310996 0.190369 3.573311084e-43
0.361424 0.313676 0.191416 3.573311084e-43
0.368882 0.315854 0.161523 3.573311084e-43
0.370434 0.371637 0.162239 3.573311084e-43
0.299203 0.436687 0.191819 3.573311084e-43
0.284897 0.366010 0.181209 3.573311084e-43
0.369259 0.416126 0.160513 3.573311084e-43
0.369314 0.316544 0.183381 3.573311084e-43
0.384899 0.353486 0.191470 3.573311084e-43
0.365993 0.398520 0.194112 3.573311084e-43
0.350774 0.410809 0.149805 3.573311084e-43
0.324482 0.425502 0.159705 3.573311084e-43
0.322335 0.452668 0.169702 3.573311084e-43
0.339346 0.451291 0.168578 3.573311084e-43
0.362151 0.319243 0.198407 3.573311084e-43
0.360558 0.306809 0.181248 3.573311084e-43
0.384972 0.339716 0.200544 3.573311084e-43
0.422629 0.465958 0.177507 3.573311084e-43
0.378799 0.367472 0.213267 3.573311084e-43
0.295841 0.395404 0.163058 3.573311084e-43
0.358115 0.304306 0.219262 3.573311084e-43
0.350993 0.298753 0.218269 3.573311084e-43
0.352812 0.294581 0.214952 3.573311084e-43
0.360555 0.302487 0.211897 3.573311084e-43
0.338488 0.433939 0.166348 3.573311084e-43
0.364266 0.445466 0.192059 3.573311084e-43
0.364370 0.315946 0.188969 3.573311084e-43
0.364817 0.315361 0.185292 3.573311084e-43
0.383904 0.363720 0.223394 3.573311084e-43
0.370989 0.398318 0.176525 3.573311084e-43
0.360468 0.312161 0.208100 3.573311084e-43
0.281291 0.362082 0.163103 3.573311084e-43
0.285136 0.407203 0.160869 3.573311084e-43
0.302973 0.395753 0.152188 3.573311084e-43
0.361862 0.435287 0.190870 3.573311084e-43
0.354633 0.297830 0.192072 3.573311084e-43
0.355692 0.318901 0.194932 3.573311084e-43
0.363015 0.301628 0.216729 3.573311084e-43
0.302309 0.405765 0.157478 3.573311084e-43
0.348940 0.460790 0.190884 3.573311084e-43
0.369488 0.320239 0.191624 3.573311084e-43
0.363869 0.320061 0.180885 3.573311084e-43
0.376445 0.325632 0.212549 3.573311084e-43
0.358083 0.460366 0.187960 3.573311084e-43
0.379544 0.363397 0.210774 3.573311084e-43
0.378703 0.380781 0.206191 3.573311084e-43
0.291234 0.363867 0.172034 3.573311084e-43
0.378144 0.343882 0.195132 3.573311084e-43
0.355437 0.297853 0.233074 3.573311084e-43
0.351025 0.307444 0.222409 3.573311084e-43
0.366287 0.295408 0.227737 3.573311084e-43
0.360490 0.310689 0.195394 3.573311084e-43
0.424824 0.457915 0.179530 3.573311084e-43
0.396069 0.454789 0.170039 3.573311084e-43
0.338774 0.457621 0.181217 3.573311084e-43
0.385949 0.438699 0.171798 3.573311084e-43
0.297828 0.407886 0.159085 3.573311084e-43
0.396165 0.461266 0.168119 3.573311084e-43
0.358104 0.321854 0.210027 3.573311084e-43
0.361440 0.311794 0.206021 3.573311084e-43
0.383097 0.318141 0.197925 3.573311084e-43
0.358381 0.401961 0.195193 3.573311084e-43
0.368734 0.318434 0.199027 3.573311084e-43
0.361994 0.320387 0.202127 3.573311084e-43
0.375903 0.318693 0.205410 3.573311084e-43
0.373786 0.329847 0.184955 3.573311084e-43
0.379721 0.377522 0.190398 3.573311084e-43
0.341917 0.354829 0.128632 3.573311084e-43
0.305785 0.436078 0.181025 3.573311084e-43
0.389259 0.363408 0.214074 3.573311084e-43
0.294397 0.437006 0.191304 3.573311084e-43
0.378776 0.463618 0.176290 3.573311084e-43
0.383982 0.338753 0.193650 3.573311084e-43
0.308976 0.447130 0.193139 3.573311084e-43
0.358917 0.325343 0.209936 3.573311084e-43
0.300308 0.378586 0.155230 3.573311084e-43
0.360783 0.414784 0.187697 3.573311084e-43
0.353222 0.322260 0.223465 3.573311084e-43
0.360647 0.312197 0.205489 3.573311084e-43
0.363210 0.318290 0.196953 3.573311084e-43
0.367793 0.318265 0.204495 3.573311084e-43
0.366733 0.325266 0.195424 3.573311084e-43
0.380929 0.332374 0.192893 3.573311084e-43
0.369592 0.328425 0.194415 3.573311084e-43
0.304076 0.387719 0.168635 3.573311084e-43
0.377007 0.373362 0.185565 3.573311084e-43
0.356292 0.394801 0.175364 3.573311084e-43
0.388011 0.447607 0.176521 3.573311084e-43
0.409356 0.424282 0.225317 3.573311084e-43
0.388479 0.360090 0.179843 3.573311084e-43
0.332151 0.466906 0.184324 3.573311084e-43
0.333230 0.435170 0.158666 3.573311084e-43
0.382251 0.374300 0.226685 3.573311084e-43
0.389127 0.453536 0.193228 3.573311084e-43
0.350651 0.317147 0.228075 3.573311084e-43
0.348918 0.330998 0.217660 3.573311084e-43
0.360840 0.317204 0.212992 3.573311084e-43
0.381582 0.328358 0.196734 3.573311084e-43
0.367146 0.442629 0.163222 3.573311084e-43
0.348743 0.365422 0.138358 3.573311084e-43
0.368405 0.451635 0.188145 3.573311084e-43
0.406253 0.464081 0.182270 3.573311084e-43
0.425317 0.472410 0.179382 3.573311084e-43
0.418299 0.472081 0.188808 3.573311084e-43
0.308864 0.383500 0.221350 3.573311084e-43
0.410942 0.460080 0.176263 3.573311084e-43
0.350652 0.467488 0.193906 3.573311084e-43
0.351808 0.469204 0.188933 3.573311084e-43
0.334124 0.432750 0.150464 3.573311084e-43
0.402452 0.469372 0.188979 3.573311084e-43
0.404047 0.472307 0.182055 3.573311084e-43
0.327620 0.453800 0.174828 3.573311084e-43
0.373971 0.347784 0.225867 3.573311084e-43
0.346593 0.460963 0.183816 3.573311084e-43
0.356611 0.308633 0.217685 3.573311084e-43
0.378260 0.346118 0.234091 3.573311084e-43
0.370139 0.353503 0.240213 3.573311084e-43
0.362066 0.455074 0.210806 3.573311084e-43
0.375297 0.355697 0.236416 3.573311084e-43
0.395689 0.448248 0.175931 3.573311084e-43
0.360042 0.310772 0.221363 3.573311084e-43
0.357918 0.316763 0.223838 3.573311084e-43
0.378884 0.368148 0.231202 3.573311084e-43
0.388581 0.461178 0.199199 3.573311084e-43
0.391331 0.462943 0.188203 3.573311084e-43
0.368920 0.465649 0.185402 3.573311084e-43
0.349401 0.314988 0.225687 3.573311084e-43
0.376610 0.351968 0.232142 3.573311084e-43
0.382658 0.385409 0.223582 3.573311084e-43
0.340992 0.427144 0.209925 3.573311084e-43
0.400038 0.469158 0.185995 3.573311084e-43
0.377871 0.354137 0.240338 3.573311084e-43
0.378233 0.375849 0.224692 3.573311084e-43
0.344696 0.462783 0.182762 3.573311084e-43
0.378471 0.364005 0.232726 3.573311084e-43
0.375883 0.385511 0.224450 3.573311084e-43
0.314678 0.435444 0.184469 3.573311084e-43
0.392299 0.456902 0.192072 3.573311084e-43
0.388876 0.459621 0.185877 3.573311084e-43
0.394132 0.465188 0.182834 3.573311084e-43
0.381939 0.336352 0.205200 3.573311084e-43
0.369595 0.362446 0.239921 3.573311084e-43
0.383938 0.374904 0.232327 3.573311084e-43
0.394847 0.471068 0.190726 3.573311084e-43
0.403529 0.467528 0.177072 3.573311084e-43
0.343749 0.310719 0.223630 3.573311084e-43
0.374098 0.376560 0.241333 3.573311084e-43
0.353066 0.413399 0.152854 3.573311084e-43
0.319009 0.429644 0.164553 3.573311084e-43
0.366450 0.344158 0.242475 3.573311084e-43
0.361912 0.351688 0.234406 3.573311084e-43
0.376659 0.386205 0.225584 3.573311084e-43
0.292784 0.383968 0.205994 3.573311084e-43
0.385193 0.453821 0.183947 3.573311084e-43
0.355674 0.465857 0.194587 3.573311084e-43
0.301957 0.383444 0.132633 3.573311084e-43
0.298374 0.370254 0.138447 3.573311084e-43
0.284756 0.370938 0.136629 3.573311084e-43
0.291937 0.379258 0.143629 3.573311084e-43
0.278161 0.380944 0.149239 3.573311084e-43
0.278560 0.377376 0.159492 3.573311084e-43
0.316766 0.427324 0.160239 3.573311084e-43
0.370578 0.386307 0.176588 3.573311084e-43
0.295488 0.380652 0.132910 3.573311084e-43
0.296783 0.379694 0.139192 3.573311084e-43
0.298592 0.372460 0.141444 3.573311084e-43
0.303030 0.419815 0.163474 3.573311084e-43
0.309032 0.420240 0.166763 3.573311084e-43
0.304103 0.380416 0.135160 3.573311084e-43
0.291790 0.372429 0.147374 3.573311084e-43
0.279178 0.378542 0.157502 3.573311084e-43
0.282868 0.373945 0.165129 3.573311084e-43
0.294641 0.410335 0.185530 3.573311084e-43
0.305599 0.463362 0.190269 3.573311084e-43
0.316511 0.429177 0.167411 3.573311084e-43
0.324827 0.452882 0.204840 3.573311084e-43
0.373333 0.395064 0.183332 3.573311084e-43
0.291375 0.385838 0.132810 3.573311084e-43
0.299057 0.375567 0.148096 3.573311084e-43
0.297363 0.384888 0.146992 3.573311084e-43
0.305983 0.455389 0.206268 3.573311084e-43
0.281359 0.357166 0.178987 3.573311084e-43
0.296789 0.370055 0.202905 3.573311084e-43
0.385931 0.372935 0.201535 3.573311084e-43
0.274538 0.378682 0.150459 3.573311084e-43
0.310437 0.456468 0.193880 3.573311084e-43
0.391820 0.345841 0.195441 3.573311084e-43
0.297561 0.420362 0.168627 3.573311084e-43
0.284719 0.385492 0.151619 3.573311084e-43
0.350817 0.439321 0.165820 3.573311084e-43
0.290597 0.362388 0.166913 3.573311084e-43
0.283349 0.361183 0.178831 3.573311084e-43
0.304179 0.434867 0.165227 3.573311084e-43
0.303591 0.386517 0.127388 3.573311084e-43
0.301344 0.388492 0.136597 3.573311084e-43
0.307246 0.379388 0.138853 3.573311084e-43
0.308780 0.376204 0.140132 3.573311084e-43
0.304377 0.376990 0.150743 3.573311084e-43
0.301391 0.452170 0.211318 3.573311084e-43
0.309899 0.439097 0.177733 3.573311084e-43
0.300402 0.425689 0.164880 3.573311084e-43
0.306038 0.387819 0.217135 3.573311084e-43
0.318717 0.470363 0.202750 3.573311084e-43
0.301127 0.377923 0.147338 3.573311084e-43
0.301135 0.371089 0.147843 3.573311084e-43
0.303115 0.431090 0.150926 3.573311084e-43
0.372011 0.453350 0.217283 3.573311084e-43
0.287536 0.385054 0.154807 3.573311084e-43
0.311332 0.384541 0.149936 3.573311084e-43
0.326530 0.474411 0.197440 3.573311084e-43
0.288625 0.362818 0.173861 3.573311084e-43
0.300430 0.445541 0.190514 3.573311084e-43
0.314075 0.383913 0.217895 3.573311084e-43
0.313101 0.379783 0.164585 3.573311084e-43
0.385688 0.343689 0.183626 3.573311084e-43
0.293637 0.367496 0.189276 3.573311084e-43
0.305883 0.367436 0.158783 3.573311084e-43
0.295129 0.379348 0.161890 3.573311084e-43
0.286573 0.379818 0.182160 3.573311084e-43
0.281407 0.373791 0.168814 3.573311084e-43
0.287741 0.363681 0.188640 3.573311084e-43
0.347683 0.438596 0.164398 3.573311084e-43
0.289408 0.366958 0.202416 3.573311084e-43
0.363082 0.387054 0.172405 3.573311084e-43
0.298936 0.367914 0.190186 3.573311084e-43
0.293659 0.366187 0.200104 3.573311084e-43
0.290998 0.370358 0.194743 3.573311084e-43
0.404429 0.438436 0.221338 3.573311084e-43
0.395869 0.425899 0.217467 3.573311084e-43
0.381528 0.446078 0.212632 3.573311084e-43
0.363734 0.445240 0.190367 3.573311084e-43
0.293890 0.398861 0.172861 3.573311084e-43
0.373738 0.375768 0.154942 3.573311084e-43
0.357484 0.407177 0.156652 3.573311084e-43
0.363277 0.431640 0.202033 3.573311084e-43
0.291215 0.375562 0.192803 3.573311084e-43
0.296856 0.372341 0.197601 3.573311084e-43
0.363076 0.429963 0.182164 3.573311084e-43
0.349840 0.443844 0.175757 3.573311084e-43
0.360570 0.428917 0.177807 3.573311084e-43
0.371380 0.403549 0.185609 3.573311084e-43
0.410559 0.428286 0.231950 3.573311084e-43
0.315303 0.390586 0.158368 3.573311084e-43
0.321018 0.364062 0.131267 3.573311084e-43
0.326420 0.345808 0.120809 3.573311084e-43
0.337376 0.361993 0.136236 3.573311084e-43
0.326616 0.354574 0.124341 3.573311084e-43
0.325961 0.361166 0.124367 3.573311084e-43
0.346580 0.326574 0.161599 3.573311084e-43
0.384636 0.371904 0.193398 3.573311084e-43
0.309174 0.387170 0.123733 3.573311084e-43
0.318371 0.462132 0.185318 3.573311084e-43
0.333924 0.361711 0.127185 3.573311084e-43
0.376187 0.334802 0.183996 3.573311084e-43
0.420519 0.462836 0.170182 3.573311084e-43
0.320072 0.459627 0.190466 3.573311084e-43
0.315226 0.378491 0.128625 3.573311084e-43
0.390750 0.456194 0.162770 3.573311084e-43
0.337337 0.354210 0.126646 3.573311084e-43
0.313309 0.377225 0.131686 3.573311084e-43
0.292405 0.376709 0.149821 3.573311084e-43
0.338747 0.451724 0.164018 3.573311084e-43
0.322691 0.367660 0.133650 3.573311084e-43
0.299680 0.389280 0.158844 3.573311084e-43
0.332242 0.355380 0.125247 3.573311084e-43
0.337634 0.357814 0.139298 3.573311084e-43
0.329620 0.368087 0.146723 3.573311084e-43
0.306687 0.381373 0.138524 3.573311084e-43
0.298165 0.370420 0.156992 3.573311084e-43
0.290716 0.379741 0.151963 3.573311084e-43
0.289732 0.384669 0.151023 3.573311084e-43
0.347346 0.349039 0.130395 3.573311084e-43
0.338536 0.356042 0.133595 3.573311084e-43
0.370986 0.392741 0.181287 3.573311084e-43
0.326406 0.377323 0.133872 3.573311084e-43
0.340418 0.470107 0.200067 3.573311084e-43
0.336924 0.366133 0.139887 3.573311084e-43
0.376760 0.370958 0.214649 3.573311084e-43
0.380609 0.364098 0.211390 3.573311084e-43
0.323319 0.371319 0.131841 3.573311084e-43
0.311181 0.386666 0.129806 3.573311084e-43
0.366910 0.452783 0.170112 3.573311084e-43
0.395438 0.461583 0.178409 3.573311084e-43
0.319529 0.378777 0.142355 3.573311084e-43
0.290762 0.373893 0.161725 3.573311084e-43
0.386172 0.394019 0.191345 3.573311084e-43
0.328177 0.354920 0.134033 3.573311084e-43
0.383887 0.336989 0.195702 3.573311084e-43
0.381512 0.348253 0.201666 3.573311084e-43
0.378765 0.359159 0.207183 3.573311084e-43
0.339614 0.362791 0.146602 3.573311084e-43
0.328493 0.362176 0.142177 3.573311084e-43
0.336313 0.374715 0.153007 3.573311084e-43
0.378403 0.376690 0.198022 3.573311084e-43
0.315901 0.376051 0.138756 3.573311084e-43
0.307115 0.374434 0.135190 3.573311084e-43
0.342256 0.353201 0.141191 3.573311084e-43
0.346097 0.355396 0.146084 3.573311084e-43
0.382881 0.347663 0.210114 3.573311084e-43
0.349211 0.365510 0.142842 3.573311084e-43
0.362105 0.425600 0.172203 3.573311084e-43
0.367748 0.378724 0.186964 3.573311084e-43
0.369379 0.416411 0.173396 3.573311084e-43
0.324277 0.376083 0.142915 3.573311084e-43
0.323023 0.381288 0.142075 3.573311084e-43
0.315433 0.391819 0.140014 3.573311084e-43
0.313169 0.387280 0.154171 3.573311084e-43
0.373263 0.367297 0.210640 3.573311084e-43
0.381246 0.392552 0.192561 3.573311084e-43
0.357178 0.350629 0.144314 3.573311084e-43
0.362991 0.364149 0.145578 3.573311084e-43
0.354285 0.353973 0.156015 3.573311084e-43
0.340589 0.368332 0.153524 3.573311084e-43
0.377134 0.377739 0.210568 3.573311084e-43
0.346846 0.363855 0.142573 3.573311084e-43
0.345425 0.355836 0.148141 3.573311084e-43
0.323360 0.391692 0.145296 3.573311084e-43
0.326711 0.398110 0.147156 3.573311084e-43
0.310191 0.397794 0.144670 3.573311084e-43
0.308091 0.416452 0.150490 3.573311084e-43
0.411977 0.457432 0.170758 3.573311084e-43
0.358594 0.361021 0.152654 3.573311084e-43
0.363726 0.362722 0.146755 3.573311084e-43
0.355581 0.372720 0.156994 3.573311084e-43
0.347972 0.363044 0.149047 3.573311084e-43
0.358052 0.368062 0.157597 3.573311084e-43
0.346674 0.364800 0.158716 3.573311084e-43
0.341173 0.338099 0.137375 3.573311084e-43
0.312732 0.406287 0.145579 3.573311084e-43
0.383131 0.360831 0.222936 3.573311084e-43
0.317529 0.407807 0.134409 3.573311084e-43
0.317145 0.399273 0.144384 3.573311084e-43
0.349751 0.370741 0.151166 3.573311084e-43
0.319356 0.390405 0.144390 3.573311084e-43
0.324512 0.396310 0.137132 3.573311084e-43
0.320801 0.419273 0.139432 3.573311084e-43
0.337465 0.468085 0.175868 3.573311084e-43
0.357245 0.355652 0.153374 3.573311084e-43
0.356422 0.359010 0.156913 3.573311084e-43
0.353630 0.370184 0.150361 3.573311084e-43
0.349079 0.373051 0.167091 3.573311084e-43
0.350019 0.375626 0.152090 3.573311084e-43
0.316839 0.377716 0.121826 3.573311084e-43
0.325097 0.402412 0.140995 3.573311084e-43
0.313080 0.410815 0.145128 3.573311084e-43
0.371610 0.377734 0.229054 3.573311084e-43
0.322891 0.416944 0.141524 3.573311084e-43
0.310669 0.414988 0.140400 3.573311084e-43
0.330951 0.458121 0.172164 3.573311084e-43
0.375636 0.365723 0.183785 3.573311084e-43
0.325831 0.406750 0.134342 3.573311084e-43
0.323664 0.402443 0.145109 3.573311084e-43
0.317362 0.413139 0.142177 3.573311084e-43
0.312554 0.417620 0.137930 3.573311084e-43
0.385247 0.368065 0.208406 3.573311084e-43
0.374779 0.356383 0.182993 3.573311084e-43
0.372060 0.367452 0.159722 3.573311084e-43
0.350013 0.371315 0.154933 3.573311084e-43
0.351207 0.381450 0.158029 3.573311084e-43
0.372892 0.340102 0.191379 3.573311084e-43
0.361792 0.377269 0.156213 3.573311084e-43
0.328914 0.407431 0.142009 3.573311084e-43
0.311260 0.420470 0.150344 3.573311084e-43
0.305531 0.411538 0.150816 3.573311084e-43
0.365941 0.380511 0.176949 3.573311084e-43
0.361814 0.394929 0.176789 3.573311084e-43
0.340474 0.407883 0.143975 3.573311084e-43
0.343331 0.413095 0.148472 3.573311084e-43
0.341788 0.413714 0.142536 3.573311084e-43
0.323147 0.427418 0.147444 3.573311084e-43
0.320116 0.419779 0.143283 3.573311084e-43
0.303605 0.424526 0.157728 3.573311084e-43
0.304791 0.416002 0.154388 3.573311084e-43
0.354951 0.299892 0.219889 3.573311084e-43
0.351437 0.372068 0.161123 3.573311084e-43
0.357199 0.385592 0.167011 3.573311084e-43
0.314048 0.426139 0.147039 3.573311084e-43
0.359352 0.370837 0.156132 3.573311084e-43
0.378423 0.392512 0.158431 3.573311084e-43
0.345684 0.464415 0.190939 3.573311084e-43
0.338517 0.420958 0.133365 3.573311084e-43
0.340090 0.431018 0.137526 3.573311084e-43
0.319195 0.410241 0.153433 3.573311084e-43
0.328239 0.424170 0.157717 3.573311084e-43
0.324115 0.426391 0.148088 3.573311084e-43
0.317080 0.428406 0.158709 3.573311084e-43
0.312616 0.422285 0.166535 3.573311084e-43
0.309777 0.376538 0.124881 3.573311084e-43
0.324638 0.351085 0.125377 3.573311084e-43
0.341591 0.351161 0.137572 3.573311084e-43
0.370424 0.377444 0.177034 3.573311084e-43
0.375614 0.381859 0.181916 3.573311084e-43
0.388100 0.339908 0.187918 3.573311084e-43
0.380996 0.350329 0.195947 3.573311084e-43
0.376513 0.370450 0.163897 3.573311084e-43
0.379349 0.379690 0.192946 3.573311084e-43
0.388394 0.343494 0.219260 3.573311084e-43
0.351350 0.335024 0.144048 3.573311084e-43
0.339652 0.344275 0.131836 3.573311084e-43
0.336935 0.337601 0.121905 3.573311084e-43
0.380779 0.373345 0.180926 3.573311084e-43
0.374674 0.388269 0.192399 3.573311084e-43
0.385312 0.332010 0.212548 3.573311084e-43
0.311188 0.370923 0.137498 3.573311084e-43
0.372453 0.387616 0.182903 3.573311084e-43
0.352407 0.347276 0.142725 3.573311084e-43
0.312030 0.367607 0.128348 3.573311084e-43
0.356209 0.405869 0.166262 3.573311084e-43
0.375168 0.366608 0.191060 3.573311084e-43
0.367193 0.404612 0.208494 3.573311084e-43
0.379600 0.343289 0.210188 3.573311084e-43
0.367794 0.320159 0.180088 3.573311084e-43
0.369842 0.372906 0.173119 3.573311084e-43
0.358387 0.308791 0.191252 3.573311084e-43
0.374936 0.355408 0.152803 3.573311084e-43
0.312529 0.370218 0.118556 3.573311084e-43
0.346541 0.317417 0.152499 3.573311084e-43
0.374742 0.336261 0.191401 3.573311084e-43
0.394785 0.376013 0.158817 3.573311084e-43
0.336183 0.365227 0.128398 3.573311084e-43
0.376596 0.332079 0.180053 3.573311084e-43
0.363772 0.427811 0.183957 3.573311084e-43
0.336187 0.328439 0.136471 3.573311084e-43
0.362324 0.401561 0.207175 3.573311084e-43
0.355323 0.423626 0.188504 3.573311084e-43
0.374831 0.391137 0.209209 3.573311084e-43
0.373925 0.388846 0.219241 3.573311084e-43
0.373897 0.384970 0.214731 3.573311084e-43
0.373645 0.383327 0.224391 3.573311084e-43
0.372138 0.374252 0.225921 3.573311084e-43
0.360423 0.427054 0.188127 3.573311084e-43
0.367062 0.411135 0.195995 3.573311084e-43
0.377288 0.384109 0.226524 3.573311084e-43
0.377856 0.378549 0.226405 3.573311084e-43
0.382517 0.379345 0.213404 3.573311084e-43
0.361738 0.433857 0.187404 3.573311084e-43
0.338214 0.323103 0.150081 3.573311084e-43
0.344744 0.326799 0.142806 3.573311084e-43
0.341446 0.329072 0.143264 3.573311084e-43
0.337200 0.316698 0.148995 3.573311084e-43
0.342997 0.326281 0.148792 3.573311084e-43
0.347859 0.320644 0.160118 3.573311084e-43
0.352989 0.332413 0.147513 3.573311084e-43
0.354987 0.403489 0.174311 3.573311084e-43
0.374516 0.441208 0.206380 3.573311084e-43
0.303157 0.368938 0.131042 3.573311084e-43
0.340680 0.409729 0.156622 3.573311084e-43
0.348225 0.417366 0.153804 3.573311084e-43
0.377807 0.420189 0.208233 3.573311084e-43
0.343737 0.301496 0.186967 3.573311084e-43
0.351222 0.309713 0.176060 3.573311084e-43
0.354794 0.316524 0.160838 3.573311084e-43
0.360198 0.324279 0.154094 3.573311084e-43
0.360180 0.328409 0.157707 3.573311084e-43
0.345743 0.338253 0.160787 3.573311084e-43
0.351880 0.335652 0.160401 3.573311084e-43
0.351189 0.341873 0.136316 3.573311084e-43
0.351681 0.359471 0.144800 3.573311084e-43
0.351449 0.311405 0.182588 3.573311084e-43
0.390349 0.422487 0.207279 3.573311084e-43
0.351981 0.306788 0.191148 3.573311084e-43
0.356924 0.315507 0.162599 3.573311084e-43
0.359489 0.323748 0.161633 3.573311084e-43
0.290120 0.409039 0.158278 3.573311084e-43
0.355913 0.331926 0.157312 3.573311084e-43
0.366736 0.328761 0.157244 3.573311084e-43
0.354863 0.336130 0.145018 3.573311084e-43
0.362040 0.345969 0.152579 3.573311084e-43
0.366130 0.329953 0.155539 3.573311084e-43
0.351775 0.338825 0.138128 3.573311084e-43
0.348430 0.350648 0.148071 3.573311084e-43
0.349816 0.347369 0.137864 3.573311084e-43
0.356645 0.304582 0.194388 3.573311084e-43
0.361798 0.327801 0.164567 3.573311084e-43
0.347747 0.313873 0.191114 3.573311084e-43
0.355551 0.312748 0.162482 3.573311084e-43
0.353264 0.345090 0.141271 3.573311084e-43
0.332478 0.361121 0.148942 3.573311084e-43
0.326424 0.371214 0.143774 3.573311084e-43
0.392628 0.421915 0.218842 3.573311084e-43
0.350158 0.300514 0.193226 3.573311084e-43
0.367112 0.336593 0.169564 3.573311084e-43
0.351269 0.328623 0.158769 3.573311084e-43
0.365167 0.340821 0.152811 3.573311084e-43
0.366731 0.349597 0.148905 3.573311084e-43
0.357602 0.351178 0.149007 3.573311084e-43
0.358800 0.349793 0.152414 3.573311084e-43
0.368317 0.327818 0.166805 3.573311084e-43
0.363452 0.328838 0.171610 3.573311084e-43
0.366235 0.329590 0.166122 3.573311084e-43
0.368348 0.343492 0.158495 3.573311084e-43
0.331937 0.363856 0.148121 3.573311084e-43
0.339723 0.366083 0.150660 3.573311084e-43
0.338670 0.370233 0.145060 3.573311084e-43
0.369295 0.349391 0.150745 3.573311084e-43
0.335226 0.366103 0.143146 3.573311084e-43
0.364585 0.321693 0.176199 3.573311084e-43
0.373098 0.336813 0.171249 3.573311084e-43
0.363248 0.332319 0.162695 3.573311084e-43
0.377460 0.342339 0.164118 3.573311084e-43
0.370238 0.357000 0.150716 3.573311084e-43
0.339270 0.373773 0.151434 3.573311084e-43
0.330191 0.391344 0.152742 3.573311084e-43
0.329319 0.367173 0.149700 3.573311084e-43
0.332009 0.382482 0.137791 3.573311084e-43
0.326471 0.389950 0.137768 3.573311084e-43
0.359385 0.443943 0.168124 3.573311084e-43
0.370916 0.358172 0.149701 3.573311084e-43
0.330782 0.392068 0.159852 3.573311084e-43
0.324846 0.398174 0.135731 3.573311084e-43
0.374029 0.325320 0.184111 3.573311084e-43
0.378938 0.327126 0.181666 3.573311084e-43
0.372741 0.325879 0.169992 3.573311084e-43
0.384354 0.335065 0.180410 3.573311084e-43
0.367239 0.340904 0.175396 3.573311084e-43
0.371438 0.340085 0.175324 3.573311084e-43
0.372581 0.348137 0.166865 3.573311084e-43
0.360427 0.348569 0.140394 3.573311084e-43
0.375169 0.351458 0.153539 3.573311084e-43
0.371297 0.360642 0.156673 3.573311084e-43
0.369447 0.365293 0.147698 3.573311084e-43
0.369870 0.369186 0.151833 3.573311084e-43
0.337652 0.385629 0.143198 3.573311084e-43
0.349982 0.375753 0.151240 3.573311084e-43
0.340701 0.384811 0.151109 3.573311084e-43
0.338741 0.379563 0.150111 3.573311084e-43
0.338987 0.402283 0.149909 3.573311084e-43
0.323800 0.397309 0.137529 3.573311084e-43
0.361609 0.362292 0.148120 3.573311084e-43
0.333063 0.401733 0.138442 3.573311084e-43
0.376945 0.336158 0.190032 3.573311084e-43
0.386322 0.338041 0.189468 3.573311084e-43
0.380866 0.335599 0.184042 3.573311084e-43
0.374773 0.332870 0.181837 3.573311084e-43
0.373347 0.342080 0.171101 3.573311084e-43
0.384332 0.347016 0.162691 3.573311084e-43
0.390524 0.355144 0.168445 3.573311084e-43
0.376079 0.359849 0.170993 3.573311084e-43
0.371533 0.355868 0.161260 3.573311084e-43
0.364288 0.369791 0.159529 3.573311084e-43
0.374857 0.371638 0.144983 3.573311084e-43
0.352133 0.378751 0.160124 3.573311084e-43
0.354496 0.374666 0.154489 3.573311084e-43
0.343647 0.388754 0.156738 3.573311084e-43
0.346667 0.384251 0.158565 3.573311084e-43
0.340330 0.383560 0.145381 3.573311084e-43
0.348406 0.395717 0.152761 3.573311084e-43
0.336655 0.402069 0.137815 3.573311084e-43
0.330809 0.396772 0.141398 3.573311084e-43
0.270044 0.385715 0.157352 3.573311084e-43
0.351268 0.379412 0.154740 3.573311084e-43
0.345907 0.386783 0.143797 3.573311084e-43
0.373664 0.349140 0.176157 3.573311084e-43
0.376221 0.348077 0.186020 3.573311084e-43
0.373750 0.348899 0.175285 3.573311084e-43
0.381193 0.353247 0.159044 3.573311084e-43
0.381253 0.359814 0.170500 3.573311084e-43
0.368478 0.358897 0.152631 3.573311084e-43
0.364837 0.373677 0.162714 3.573311084e-43
0.372417 0.375283 0.163955 3.573311084e-43
0.337627 0.407694 0.140632 3.573311084e-43
0.380697 0.343315 0.179604 3.573311084e-43
0.346279 0.379734 0.165154 3.573311084e-43
0.343488 0.383523 0.152278 3.573311084e-43
0.354933 0.391265 0.146666 3.573311084e-43
0.346411 0.403530 0.140782 3.573311084e-43
0.342875 0.402070 0.138270 3.573311084e-43
0.349007 0.401051 0.145333 3.573311084e-43
0.337492 0.402716 0.142449 3.573311084e-43
0.381572 0.353506 0.175371 3.573311084e-43
0.376447 0.374875 0.159658 3.573311084e-43
0.386231 0.352062 0.183901 3.573311084e-43
0.355398 0.390864 0.151963 3.573311084e-43
0.342717 0.332853 0.142888 3.573311084e-43
0.351980 0.337391 0.140821 3.573311084e-43
0.330988 0.332490 0.141266 3.573311084e-43
0.337893 0.345488 0.143711 3.573311084e-43
0.340097 0.327048 0.147052 3.573311084e-43
0.337713 0.322319 0.159481 3.573311084e-43
0.326062 0.341432 0.130672 3.573311084e-43
0.335610 0.348146 0.130304 3.573311084e-43
0.352721 0.320705 0.154172 3.573311084e-43
0.333414 0.333268 0.154878 3.573311084e-43
0.341182 0.342245 0.142304 3.573311084e-43
0.335110 0.328994 0.150466 3.573311084e-43
0.350127 0.319482 0.148973 3.573311084e-43
0.343617 0.324823 0.163671 3.573311084e-43
0.339018 0.311666 0.161512 3.573311084e-43
0.336555 0.346180 0.132968 3.573311084e-43
0.334894 0.349939 0.147310 3.573311084e-43
0.342176 0.344864 0.147079 3.573311084e-43
0.333823 0.343756 0.142103 3.573311084e-43
0.330766 0.336365 0.154144 3.573311084e-43
0.342181 0.321655 0.158680 3.573311084e-43
0.346716 0.315620 0.165230 3.573311084e-43
0.331927 0.322113 0.174687 3.573311084e-43
0.324672 0.357094 0.145413 3.573311084e-43
0.335535 0.353207 0.137017 3.573311084e-43
0.322784 0.342972 0.142707 3.573311084e-43
0.341556 0.321811 0.168527 3.573311084e-43
0.332609 0.346864 0.138725 3.573311084e-43
0.336843 0.334912 0.158741 3.573311084e-43
0.328649 0.318467 0.165912 3.573311084e-43
0.334238 0.310118 0.166245 3.573311084e-43
0.328066 0.357089 0.125106 3.573311084e-43
0.336754 0.335503 0.152488 3.573311084e-43
0.337278 0.336316 0.150197 3.573311084e-43
0.317081 0.366302 0.132276 3.573311084e-43
0.329973 0.360452 0.150124 3.573311084e-43
0.329337 0.341826 0.150092 3.573311084e-43
0.328297 0.324617 0.174113 3.573311084e-43
0.327786 0.324443 0.168528 3.573311084e-43
0.335784 0.309153 0.184316 3.573311084e-43
0.334651 0.306744 0.172885 3.573311084e-43
0.341561 0.306706 0.179938 3.573311084e-43
0.324428 0.359860 0.141004 3.573311084e-43
0.338500 0.353399 0.146210 3.573311084e-43
0.318783 0.348982 0.145856 3.573311084e-43
0.328593 0.331634 0.157568 3.573311084e-43
0.329679 0.336553 0.160136 3.573311084e-43
0.328007 0.323566 0.167515 3.573311084e-43
0.342390 0.297672 0.179711 3.573311084e-43
0.330031 0.327777 0.156831 3.573311084e-43
0.324989 0.314794 0.162716 3.573311084e-43
0.316603 0.365750 0.145614 3.573311084e-43
0.328744 0.338578 0.154736 3.573311084e-43
0.323093 0.343877 0.158162 3.573311084e-43
0.330742 0.329106 0.162550 3.573311084e-43
0.319469 0.301656 0.183170 3.573311084e-43
0.328549 0.316362 0.185706 3.573311084e-43
0.326161 0.304691 0.182785 3.573311084e-43
0.308766 0.373534 0.126189 3.573311084e-43
0.315269 0.360789 0.126524 3.573311084e-43
0.314510 0.353649 0.150673 3.573311084e-43
0.317540 0.341984 0.144425 3.573311084e-43
0.317677 0.329603 0.167203 3.573311084e-43
0.297849 0.369722 0.129296 3.573311084e-43
0.323209 0.326364 0.163802 3.573311084e-43
0.327113 0.323310 0.167162 3.573311084e-43
0.323331 0.322011 0.170501 3.573311084e-43
0.305568 0.432990 0.183858 3.573311084e-43
0.305481 0.356859 0.150890 3.573311084e-43
0.327858 0.337434 0.150194 3.573311084e-43
0.320675 0.335800 0.158830 3.573311084e-43
0.327603 0.331121 0.174925 3.573311084e-43
0.326378 0.302075 0.190700 3.573311084e-43
0.325394 0.304237 0.185931 3.573311084e-43
0.335921 0.296867 0.200723 3.573311084e-43
0.312200 0.359862 0.121705 3.573311084e-43
0.308876 0.364804 0.136638 3.573311084e-43
0.324555 0.351990 0.160814 3.573311084e-43
0.328684 0.330327 0.172937 3.573311084e-43
0.321851 0.313753 0.190777 3.573311084e-43
0.331559 0.301612 0.201252 3.573311084e-43
0.307664 0.374131 0.130606 3.573311084e-43
0.313223 0.351884 0.150519 3.573311084e-43
0.321734 0.348926 0.162155 3.573311084e-43
0.317802 0.334354 0.165125 3.573311084e-43
0.320007 0.330358 0.181762 3.573311084e-43
0.307249 0.372115 0.123342 3.573311084e-43
0.304005 0.370950 0.126750 3.573311084e-43
0.307889 0.360998 0.151479 3.573311084e-43
0.301656 0.355085 0.145752 3.573311084e-43
0.309336 0.340861 0.164815 3.573311084e-43
0.308713 0.338626 0.154270 3.573311084e-43
0.309915 0.325860 0.159070 3.573311084e-43
0.315531 0.319472 0.176017 3.573311084e-43
0.311425 0.293749 0.193294 3.573311084e-43
0.334849 0.301637 0.200176 3.573311084e-43
0.326648 0.304742 0.197377 3.573311084e-43
0.292360 0.377616 0.144769 3.573311084e-43
0.300008 0.352945 0.145096 3.573311084e-43
0.312689 0.344569 0.160164 3.573311084e-43
0.306840 0.328497 0.167429 3.573311084e-43
0.315257 0.305825 0.187821 3.573311084e-43
0.331725 0.296318 0.197702 3.573311084e-43
0.327839 0.287295 0.203701 3.573311084e-43
0.299959 0.368692 0.148734 3.573311084e-43
0.308553 0.332837 0.162409 3.573311084e-43
0.309118 0.327453 0.178275 3.573311084e-43
0.306056 0.320233 0.179405 3.573311084e-43
0.331789 0.302285 0.209761 3.573311084e-43
0.296033 0.383211 0.142172 3.573311084e-43
0.308164 0.352533 0.158791 3.573311084e-43
0.318853 0.333243 0.162992 3.573311084e-43
0.319799 0.316835 0.177504 3.573311084e-43
0.305145 0.362130 0.156510 3.573311084e-43
0.305437 0.347600 0.154635 3.573311084e-43
0.303832 0.346118 0.159456 3.573311084e-43
0.312272 0.325508 0.179419 3.573311084e-43
0.315944 0.323973 0.179599 3.573311084e-43
0.311218 0.313643 0.200003 3.573311084e-43
0.315485 0.306711 0.194073 3.573311084e-43
0.319632 0.299523 0.195731 3.573311084e-43
0.323466 0.302489 0.205200 3.573311084e-43
0.290238 0.360945 0.145863 3.573311084e-43
0.312110 0.325179 0.178197 3.573311084e-43
0.310437 0.322370 0.190789 3.573311084e-43
0.321220 0.306705 0.206297 3.573311084e-43
0.300480 0.371208 0.145138 3.573311084e-43
0.297830 0.352883 0.158340 3.573311084e-43
0.303052 0.342559 0.168633 3.573311084e-43
0.310901 0.350002 0.182788 3.573311084e-43
0.311231 0.328961 0.179277 3.573311084e-43
0.302466 0.349364 0.166748 3.573311084e-43
0.309198 0.353016 0.177972 3.573311084e-43
0.283944 0.367449 0.143475 3.573311084e-43
0.301170 0.328386 0.183596 3.573311084e-43
0.291924 0.328624 0.188633 3.573311084e-43
0.308006 0.314804 0.189653 3.573311084e-43
0.302919 0.314023 0.194350 3.573311084e-43
0.310722 0.315658 0.199629 3.573311084e-43
0.296453 0.375300 0.155189 3.573311084e-43
