# This PCD file was generated using the MATLAB® pcwrite function
# from Computer Vision System Toolbox®.
# .PCD v.7 - Point Cloud Data file format
VERSION .7
FIELDS x y z
SIZE 4 4 4
TYPE F F F
COUNT 1 1 1
WIDTH 1704
HEIGHT 1
VIEWPOINT 0 0 0 1 0 0 0
POINTS 1704
DATA ascii
0.403361 0.161235 -0.141939
0.426007 0.127990 -0.118859
0.429007 0.134728 -0.114802
0.432110 0.142269 -0.123363
0.450402 0.166522 -0.100196
0.441716 0.155729 -0.107361
0.489100 0.175042 -0.117981
0.459508 0.168106 -0.102980
0.405833 0.210332 -0.049359
0.430863 0.144926 -0.127715
0.493151 0.192897 -0.088812
0.426948 0.157921 -0.139423
0.392273 0.212557 -0.047325
0.495445 0.190000 -0.193428
0.453091 0.164271 -0.109133
0.504130 0.181338 -0.090377
0.460462 0.225702 -0.081129
0.441199 0.173870 -0.129392
0.462030 0.212117 -0.099517
0.477845 0.159141 -0.122669
0.415118 0.122496 -0.114376
0.436319 0.156834 -0.093727
0.432019 0.155891 -0.089134
0.431343 0.153205 -0.093877
0.475497 0.184187 -0.062378
0.360644 0.166914 -0.060961
0.486101 0.160836 -0.123851
0.481772 0.163204 -0.127565
0.486330 0.164322 -0.109636
0.399491 0.116097 -0.119865
0.386250 0.132589 -0.140281
0.481928 0.200654 -0.119328
0.480675 0.178391 -0.064543
0.384207 0.137746 -0.140915
0.367063 0.128529 -0.120605
0.444759 0.218530 -0.111168
0.449090 0.220725 -0.116168
0.483755 0.168149 -0.118909
0.489463 0.175692 -0.124157
0.458171 0.204060 -0.068560
0.488389 0.199272 -0.112672
0.396738 0.204480 -0.050808
0.394828 0.197442 -0.053469
0.489607 0.186409 -0.140781
0.386141 0.193821 -0.049008
0.387969 0.189624 -0.047299
0.385962 0.190098 -0.044203
0.388546 0.184409 -0.045998
0.380163 0.175940 -0.055158
0.374654 0.179274 -0.055952
0.372769 0.175643 -0.062069
0.364640 0.157623 -0.062722
0.402975 0.122975 -0.095910
0.440344 0.145527 -0.112880
0.475479 0.166385 -0.108070
0.494261 0.188505 -0.181579
0.482065 0.154988 -0.151878
0.467217 0.168977 -0.089252
0.475302 0.172401 -0.078185
0.481106 0.205547 -0.082862
0.366956 0.130251 -0.125702
0.421082 0.137860 -0.092429
0.482696 0.163324 -0.140496
0.473071 0.159568 -0.145894
0.420020 0.197127 -0.058064
0.419761 0.201635 -0.132067
0.481090 0.170760 -0.076688
0.492742 0.200016 -0.175654
0.428629 0.136135 -0.103346
0.455511 0.176132 -0.118177
0.495050 0.169992 -0.091493
0.491890 0.181193 -0.139882
0.410009 0.213901 -0.050125
0.441256 0.163356 -0.121363
0.376215 0.177115 -0.054860
0.364532 0.166990 -0.063185
0.497244 0.174726 -0.086938
0.487331 0.177633 -0.068988
0.405551 0.166162 -0.143535
0.442269 0.227716 -0.105968
0.439459 0.222219 -0.116670
0.491863 0.181194 -0.132389
0.415368 0.155576 -0.065537
0.410735 0.142065 -0.077795
0.354683 0.132709 -0.098477
0.403220 0.212733 -0.051088
0.399619 0.202162 -0.052965
0.491576 0.183861 -0.131873
0.496434 0.189508 -0.100244
0.494504 0.170449 -0.103982
0.501776 0.176655 -0.101088
0.413628 0.147686 -0.076600
0.398834 0.130174 -0.138917
0.482841 0.206228 -0.073330
0.390858 0.191021 -0.052250
0.441720 0.160442 -0.086718
0.449968 0.174201 -0.081395
0.362981 0.141361 -0.129105
0.443962 0.149884 -0.108945
0.345781 0.154751 -0.084297
0.474642 0.168278 -0.141037
0.474810 0.149936 -0.159461
0.375510 0.158747 -0.144150
0.415890 0.195352 -0.133694
0.503148 0.195155 -0.105178
0.387034 0.118976 -0.110320
0.424381 0.129464 -0.111173
0.418477 0.192543 -0.138230
0.384869 0.187729 -0.052236
0.386945 0.180041 -0.055172
0.374580 0.171690 -0.058693
0.372164 0.163664 -0.058135
0.363403 0.157588 -0.064333
0.482885 0.159331 -0.096123
0.484717 0.172293 -0.073066
0.452062 0.227974 -0.106416
0.340036 0.149669 -0.084957
0.483238 0.138159 -0.158056
0.478152 0.142889 -0.161762
0.428524 0.131444 -0.108404
0.483533 0.182887 -0.126796
0.408754 0.213602 -0.053993
0.395783 0.193831 -0.059530
0.387542 0.182447 -0.055428
0.379870 0.171999 -0.054369
0.377945 0.169710 -0.054275
0.371819 0.160075 -0.056511
0.366702 0.153830 -0.059012
0.374483 0.134200 -0.125260
0.472101 0.212922 -0.094344
0.499252 0.184218 -0.086023
0.376737 0.121936 -0.113125
0.378682 0.122028 -0.121487
0.487555 0.182952 -0.126996
0.407520 0.210314 -0.056561
0.397132 0.194004 -0.058463
0.452374 0.167225 -0.111858
0.415972 0.144871 -0.081305
0.452990 0.171610 -0.109700
0.496752 0.183947 -0.132996
0.386856 0.186369 -0.056455
0.388383 0.181180 -0.058976
0.380528 0.178159 -0.054270
0.387866 0.172616 -0.055010
0.483392 0.184968 -0.134119
0.482635 0.213574 -0.104176
0.410923 0.202764 -0.141697
0.492503 0.197454 -0.173323
0.476065 0.179846 -0.126648
0.481807 0.206872 -0.088514
0.387001 0.128711 -0.138595
0.469256 0.165522 -0.096230
0.429353 0.138530 -0.100007
0.483745 0.185205 -0.148182
0.468802 0.211850 -0.085547
0.497843 0.187989 -0.085558
0.441378 0.159735 -0.104533
0.351897 0.149168 -0.085357
0.346993 0.145925 -0.084448
0.346541 0.139479 -0.087616
0.449391 0.168234 -0.093200
0.484190 0.198366 -0.161332
0.392611 0.122515 -0.091957
0.479807 0.144928 -0.158035
0.456717 0.205763 -0.067721
0.416021 0.120597 -0.118970
0.419606 0.151004 -0.076831
0.433121 0.147903 -0.111761
0.405012 0.207790 -0.061790
0.405160 0.201593 -0.061313
0.402743 0.195552 -0.058106
0.389644 0.190101 -0.061632
0.370437 0.128977 -0.128898
0.473825 0.191745 -0.069073
0.478103 0.214916 -0.098173
0.429771 0.136464 -0.096260
0.420433 0.129534 -0.124874
0.458214 0.143736 -0.145961
0.491415 0.193524 -0.125023
0.474003 0.207913 -0.116230
0.420991 0.124148 -0.110152
0.449733 0.161689 -0.102325
0.447101 0.166921 -0.092227
0.444277 0.160292 -0.095605
0.432981 0.146764 -0.099984
0.460854 0.175227 -0.081909
0.486769 0.185372 -0.149041
0.499756 0.180457 -0.076941
0.389702 0.115743 -0.101777
0.392658 0.113930 -0.109024
0.444845 0.157783 -0.092792
0.484617 0.163436 -0.096716
0.405164 0.205246 -0.055757
0.485965 0.170560 -0.126168
0.394634 0.181592 -0.058884
0.482926 0.185426 -0.064820
0.453408 0.168365 -0.088272
0.466877 0.135929 -0.174284
0.372914 0.145672 -0.143475
0.465844 0.220602 -0.087174
0.408636 0.119505 -0.119630
0.464871 0.218152 -0.098628
0.492759 0.165215 -0.105031
0.493503 0.184416 -0.119158
0.482249 0.163938 -0.104581
0.447538 0.160983 -0.113457
0.497431 0.177671 -0.106145
0.499227 0.198405 -0.165844
0.454339 0.221050 -0.113212
0.391247 0.168716 -0.057879
0.384772 0.168421 -0.056388
0.381741 0.160030 -0.055732
0.377528 0.155509 -0.058854
0.378142 0.151069 -0.061714
0.361757 0.146535 -0.135860
0.353650 0.142987 -0.085819
0.490804 0.169595 -0.074120
0.439146 0.177196 -0.128933
0.413693 0.157182 -0.062787
0.495781 0.185643 -0.131894
0.490912 0.169530 -0.105204
0.494954 0.173905 -0.095281
0.436012 0.140395 -0.107528
0.392731 0.136930 -0.141461
0.408227 0.199559 -0.060747
0.405384 0.196695 -0.055825
0.398560 0.191559 -0.065492
0.395676 0.185248 -0.066597
0.442228 0.157779 -0.102693
0.497500 0.180284 -0.103433
0.435413 0.150454 -0.129051
0.419083 0.128195 -0.125819
0.486476 0.153422 -0.145745
0.437724 0.156637 -0.089607
0.439040 0.153883 -0.100312
0.486271 0.199902 -0.169851
0.481994 0.165865 -0.112912
0.436982 0.144160 -0.091657
0.349422 0.136114 -0.090566
0.430568 0.227741 -0.072997
0.463313 0.140347 -0.169237
0.479131 0.138289 -0.166679
0.449698 0.208297 -0.066892
0.403617 0.217316 -0.078951
-0.066791 0.411584 -0.303121
0.499348 0.175445 -0.098392
0.436074 0.164460 -0.126324
0.435475 0.173384 -0.123382
0.483041 0.149784 -0.154952
0.386685 0.163292 -0.055627
0.384669 0.157678 -0.052497
0.381101 0.156874 -0.058484
0.457480 0.176082 -0.086991
0.425463 0.135182 -0.123248
0.371668 0.128591 -0.119852
0.470430 0.212484 -0.096370
0.481460 0.190164 -0.136081
0.460226 0.207213 -0.074500
0.440975 0.156575 -0.101721
0.483501 0.161149 -0.103998
0.455785 0.220338 -0.105855
0.421897 0.130365 -0.097745
0.422174 0.128459 -0.090348
0.480213 0.208350 -0.089324
0.442624 0.165711 -0.082568
0.501047 0.183576 -0.108716
0.483891 0.189547 -0.157571
0.451160 0.186069 -0.128707
0.462922 0.143850 -0.141589
0.494672 0.188001 -0.173079
0.495497 0.179730 -0.114842
0.478419 0.195288 -0.145636
0.413987 0.211074 -0.071191
0.447013 0.165802 -0.100282
0.499288 0.185947 -0.115423
0.466688 0.168426 -0.098055
0.424053 0.136359 -0.131561
0.399360 0.170437 -0.057467
0.392412 0.160093 -0.058148
0.391568 0.157634 -0.058468
0.382185 0.152540 -0.058882
0.382625 0.148334 -0.062458
0.431450 0.146030 -0.095329
0.427125 0.136906 -0.095111
0.430465 0.139759 -0.093834
0.404640 0.213332 -0.077707
0.461656 0.221082 -0.079053
0.419019 0.194345 -0.138856
0.352723 0.139515 -0.090359
0.346890 0.131546 -0.094662
0.367012 0.140335 -0.137358
0.419033 0.210361 -0.067289
0.412856 0.210463 -0.069971
0.461928 0.167954 -0.110886
0.409326 0.133000 -0.079686
0.413094 0.124224 -0.100284
0.415780 0.194391 -0.060036
0.408912 0.190640 -0.060257
0.408220 0.186487 -0.063752
0.399841 0.183516 -0.065038
0.503739 0.188268 -0.093083
0.477310 0.184839 -0.129421
0.419396 0.128107 -0.097639
0.490930 0.180767 -0.075691
0.432406 0.135688 -0.105145
0.387642 0.130417 -0.137513
0.403840 0.124475 -0.103315
0.472728 0.160836 -0.147544
0.416965 0.203111 -0.065304
0.405606 0.123900 -0.122365
0.460733 0.174469 -0.113514
0.493329 0.190758 -0.124210
0.495067 0.195555 -0.147802
0.455931 0.218212 -0.101991
0.503996 0.198914 -0.171155
0.414045 0.126791 -0.096970
0.477204 0.141867 -0.169161
0.452709 0.169643 -0.091884
0.455441 0.192584 -0.119036
0.395326 0.148071 -0.144959
0.486273 0.206355 -0.094113
0.354665 0.139106 -0.091775
0.353746 0.130469 -0.098893
0.349142 0.131321 -0.094184
0.486267 0.160370 -0.140768
0.458046 0.224929 -0.093874
0.498123 0.194802 -0.148960
0.447672 0.181240 -0.125400
0.412438 0.172072 -0.067467
0.443896 0.206870 -0.124602
-0.012425 0.117191 -0.308459
0.435408 0.219576 -0.116546
0.412482 0.200529 -0.128909
0.387559 0.153588 -0.065015
0.379555 0.148192 -0.063340
0.378256 0.127860 -0.133356
0.495172 0.171589 -0.106449
0.425879 0.203562 -0.060539
0.457342 0.206293 -0.119141
0.430855 0.219660 -0.118402
0.421924 0.205975 -0.126676
0.414272 0.197430 -0.062144
0.428168 0.127125 -0.107340
0.410656 0.120732 -0.112614
0.452649 0.173074 -0.090629
0.502933 0.193360 -0.100618
0.498402 0.192072 -0.088892
0.469525 0.169162 -0.123161
0.490421 0.195777 -0.139768
0.468041 0.216878 -0.098633
0.483372 0.207383 -0.118697
0.431331 0.193707 -0.138975
0.473439 0.210264 -0.109879
0.397295 0.191158 -0.148149
0.397834 0.187436 -0.150956
0.448857 0.205423 -0.129144
0.398499 0.155963 -0.148290
0.408131 0.168264 -0.144143
0.421252 0.187040 -0.067922
0.407514 0.185067 -0.065324
0.401293 0.177435 -0.067648
0.436271 0.146457 -0.108946
0.437516 0.155961 -0.114723
0.397970 0.164144 -0.057623
0.396121 0.157560 -0.059535
0.392392 0.151398 -0.059357
0.386785 0.142164 -0.064460
0.383560 0.145980 -0.066046
0.467234 0.156025 -0.133991
0.375405 0.125139 -0.103771
0.462876 0.190033 -0.123450
0.417302 0.184433 -0.141594
0.411884 0.206052 -0.130801
0.469035 0.209799 -0.107351
0.465222 0.165334 -0.141895
0.393112 0.182464 -0.150849
0.396152 0.164617 -0.144185
0.422789 0.193144 -0.065462
0.498232 0.172310 -0.089740
0.411367 0.118807 -0.103241
0.457659 0.217392 -0.118385
0.496157 0.186438 -0.079433
0.472489 0.197305 -0.125932
0.358172 0.134534 -0.092734
0.348815 0.127627 -0.097626
0.488877 0.198365 -0.074418
0.417804 0.125341 -0.116463
0.465661 0.199760 -0.122147
0.465928 0.207205 -0.119474
0.453216 0.215498 -0.113200
0.484473 0.202707 -0.180752
0.358585 0.130945 -0.101444
0.481139 0.162399 -0.112566
0.403180 0.162116 -0.053263
0.441436 0.186733 -0.131919
0.411453 0.203846 -0.140912
0.460925 0.140622 -0.160995
0.482649 0.159968 -0.145129
0.481766 0.168001 -0.139835
0.499480 0.198661 -0.184862
0.491654 0.190374 -0.166089
0.433567 0.147333 -0.124237
0.388724 0.179333 -0.149453
0.472604 0.153089 -0.159585
0.478915 0.169927 -0.129178
0.479220 0.202455 -0.120514
0.434138 0.221187 -0.069278
0.413883 0.176083 -0.141669
0.473763 0.174515 -0.128338
0.476611 0.139943 -0.171792
0.405161 0.172592 -0.059071
0.478062 0.182777 -0.066119
0.479525 0.181903 -0.134894
0.471321 0.203240 -0.078729
0.459454 0.138641 -0.162894
0.412888 0.141391 -0.081740
0.425832 0.210026 -0.063656
0.424329 0.214603 -0.118840
0.426602 0.195232 -0.061591
0.425293 0.187280 -0.062342
0.404782 0.164534 -0.057640
0.406824 0.161293 -0.058234
0.404218 0.153552 -0.061916
0.397374 0.146566 -0.061122
0.396956 0.145687 -0.065662
0.389807 0.142910 -0.064605
0.461431 0.150778 -0.136018
0.483306 0.197587 -0.183316
0.494747 0.196844 -0.106283
0.487117 0.193049 -0.173288
0.389988 0.127225 -0.133114
0.485519 0.195837 -0.128015
0.480565 0.138619 -0.156371
0.437291 0.225007 -0.076695
0.430117 0.201836 -0.058783
0.428105 0.198192 -0.061122
0.425533 0.192807 -0.063099
0.425676 0.189015 -0.061688
0.420274 0.182924 -0.066726
0.414942 0.185034 -0.068076
0.414261 0.179030 -0.068564
0.483103 0.198098 -0.173351
0.367948 0.145463 -0.140787
0.407935 0.221980 -0.047001
0.453441 0.192030 -0.127890
0.495415 0.194751 -0.164829
0.469229 0.169225 -0.116791
0.486601 0.159949 -0.132462
1.949650 0.469275 -0.346514
0.410271 0.119211 -0.117155
0.411058 0.164009 -0.061635
0.437224 0.173725 -0.130615
0.486804 0.188984 -0.147055
0.470026 0.202685 -0.073994
0.484530 0.200301 -0.171727
0.490154 0.189184 -0.169909
0.474359 0.207520 -0.082318
0.431688 0.195160 -0.059004
0.415445 0.180494 -0.066622
0.445335 0.197068 -0.058635
0.493274 0.200180 -0.094946
0.475277 0.209800 -0.083143
0.468824 0.166902 -0.107210
0.477304 0.151947 -0.151681
0.503599 0.191010 -0.106522
0.456615 0.202298 -0.072047
0.481362 0.212542 -0.092384
0.470304 0.207342 -0.081605
0.413092 0.160485 -0.057449
0.410887 0.155697 -0.061371
0.409721 0.145112 -0.058605
0.403332 0.148047 -0.065365
0.397264 0.145263 -0.066911
0.395822 0.136514 -0.069436
0.392642 0.135908 -0.070788
0.444292 0.182030 -0.127030
0.483001 0.206851 -0.100383
0.458236 0.165363 -0.098298
0.461403 0.219871 -0.105810
0.440012 0.198801 -0.055999
0.437371 0.199170 -0.065985
0.435460 0.190116 -0.060724
0.432380 0.186891 -0.061841
0.424898 0.184913 -0.060354
0.424430 0.184190 -0.065963
0.423525 0.181184 -0.063132
0.418990 0.177773 -0.063438
0.417947 0.174384 -0.071301
0.498790 0.184622 -0.104784
0.431678 0.155096 -0.088806
0.466444 0.188623 -0.067905
0.487999 0.193993 -0.129333
0.492737 0.199148 -0.156837
0.412714 0.165184 -0.067086
0.461808 0.225473 -0.096485
0.381414 0.131335 -0.074699
0.488725 0.199652 -0.119834
0.418359 0.148997 -0.143729
0.389522 0.132841 -0.074406
0.486426 0.187674 -0.158005
0.499644 0.185327 -0.099101
0.426608 0.145046 -0.133262
0.413700 0.154236 -0.067263
0.411497 0.149394 -0.065489
0.409493 0.147150 -0.065437
0.401042 0.142415 -0.063456
0.393971 0.134926 -0.070347
0.401857 0.184270 -0.150185
0.401573 0.118914 -0.115628
0.496149 0.181926 -0.114462
0.397340 0.142092 -0.139542
0.448181 0.195054 -0.062502
0.434753 0.190864 -0.062768
0.435094 0.183562 -0.061451
0.428902 0.178290 -0.065944
0.426035 0.179428 -0.068732
0.424223 0.171201 -0.071376
0.420449 0.168524 -0.070192
0.391795 0.131567 -0.073357
0.390428 0.133132 -0.080199
0.443667 0.198860 -0.061221
0.413564 0.203856 -0.138478
0.477191 0.142530 -0.155398
0.463588 0.205250 -0.072176
0.491867 0.199748 -0.090711
0.498890 0.193899 -0.142305
0.421137 0.131360 -0.131498
0.400456 0.137535 -0.073194
0.592578 0.190506 0.005370
0.427912 0.189566 -0.135088
0.480925 0.167766 -0.097419
0.445997 0.199404 -0.058816
0.428803 0.179366 -0.067587
0.391680 0.128449 -0.079793
0.399884 0.128300 -0.137057
0.402677 0.125063 -0.122448
0.412165 0.147937 -0.065611
0.418453 0.158072 -0.138784
0.477041 0.203488 -0.077715
0.449555 0.196847 -0.065113
1.506827 -0.207484 -0.287944
0.444474 0.179920 -0.066729
0.442458 0.181687 -0.069673
0.435551 0.177504 -0.066368
0.432667 0.173823 -0.070165
0.427402 0.170594 -0.073465
0.425107 0.164116 -0.074619
0.424378 0.161877 -0.072387
0.415688 0.150762 -0.068356
0.410495 0.139855 -0.072026
0.404333 0.140078 -0.071702
0.410423 0.136593 -0.075766
0.402001 0.134203 -0.074463
0.395119 0.124433 -0.078349
0.499247 0.190275 -0.177165
0.475081 0.150113 -0.145094
0.487923 0.162421 -0.129036
0.461578 0.219546 -0.080462
0.489527 0.197213 -0.183940
0.431522 0.200339 -0.133028
0.447244 0.195040 -0.069859
0.444405 0.168953 -0.113528
0.419000 0.153686 -0.069634
0.414578 0.147255 -0.069812
0.410615 0.145656 -0.070147
0.394629 0.128047 -0.081172
0.468764 0.213273 -0.085692
0.438083 0.211684 -0.065859
0.376846 0.143428 -0.141322
0.387483 0.119768 -0.105123
0.477502 0.164271 -0.109487
0.492374 0.194217 -0.079512
0.483106 0.197945 -0.147406
0.426057 0.205188 -0.127580
0.451745 0.169221 -0.119113
0.456814 0.192293 -0.070817
0.451420 0.189399 -0.066368
0.445131 0.184218 -0.072065
0.440638 0.184283 -0.066300
0.441811 0.177269 -0.072162
0.435158 0.174122 -0.073939
0.430288 0.165314 -0.077526
0.424699 0.160114 -0.074906
0.423883 0.159389 -0.077415
0.398259 0.138062 -0.077468
0.403918 0.133067 -0.084580
0.398331 0.132732 -0.085983
0.395507 0.126807 -0.089122
0.468539 0.195309 -0.120631
0.485453 0.206265 -0.152064
0.491484 0.206493 -0.087550
0.487839 0.198526 -0.184403
0.498066 0.192951 -0.144217
0.416750 0.206449 -0.065811
0.388681 0.123430 -0.126257
0.426249 0.214288 -0.124303
0.449764 0.179369 -0.071447
0.447141 0.177249 -0.072438
0.442649 0.175018 -0.074029
0.433038 0.167307 -0.078562
0.406454 0.133789 -0.081118
0.492481 0.195962 -0.133200
0.465457 0.217407 -0.112783
0.470669 0.148251 -0.156292
0.465681 0.182516 -0.064401
0.460514 0.195582 -0.069918
0.491509 0.203353 -0.103813
0.430865 0.159476 -0.081765
0.429532 0.154138 -0.080605
0.421197 0.147267 -0.082262
0.416908 0.145018 -0.084692
0.418121 0.144205 -0.082784
0.414324 0.137716 -0.083422
0.408729 0.132813 -0.084872
0.406038 0.125209 -0.089170
0.466262 0.198233 -0.072865
0.462968 0.193215 -0.071903
0.455797 0.184148 -0.074688
0.453939 0.184658 -0.073448
0.449535 0.183582 -0.077078
0.443268 0.169728 -0.076531
0.438312 0.164317 -0.076444
0.437731 0.163808 -0.081595
0.401207 0.126991 -0.092415
0.465954 0.175411 -0.118155
0.395731 0.121152 -0.095390
0.364032 0.136631 -0.133138
0.458046 0.178054 -0.081623
0.430117 0.150212 -0.079841
0.429843 0.153549 -0.083695
0.415493 0.135509 -0.088866
0.413568 0.129479 -0.090445
0.405095 0.130040 -0.093928
0.399262 0.121243 -0.091334
0.474280 0.150105 -0.137265
0.466631 0.190929 -0.130792
0.436775 0.200231 -0.129640
0.472269 0.139860 -0.170424
0.396546 0.152770 -0.147112
0.475394 0.194156 -0.126703
0.472559 0.156339 -0.153116
0.460832 0.196697 -0.124509
0.472125 0.156988 -0.148639
0.460323 0.186883 -0.071058
0.461385 0.186579 -0.075352
0.460345 0.180135 -0.077598
0.452781 0.175266 -0.080712
0.449958 0.173018 -0.078015
0.440551 0.168256 -0.083034
0.439851 0.163796 -0.084187
0.428397 0.143860 -0.083987
0.422891 0.141980 -0.088053
0.398414 0.122298 -0.100549
0.384752 0.152043 -0.145398
0.463919 0.188824 -0.068891
0.471315 0.166506 -0.134974
0.441240 0.217760 -0.118150
0.492767 0.192542 -0.090171
0.417803 0.200191 -0.133426
0.433122 0.214679 -0.126840
0.378239 0.183353 -0.043948
0.378051 0.183649 -0.046713
0.468225 0.205818 -0.118043
0.466588 0.145161 -0.155789
0.405902 0.116197 -0.103876
0.460064 0.141638 -0.163966
0.480961 0.175516 -0.124783
0.355906 0.162568 -0.060984
0.390033 0.115606 -0.104915
0.455916 0.204566 -0.120332
0.395082 0.214502 -0.044020
0.374756 0.180622 -0.044890
0.369756 0.177092 -0.054613
0.465502 0.178184 -0.075796
0.469833 0.170382 -0.091483
0.352514 0.159235 -0.068445
0.459201 0.168792 -0.090320
0.473052 0.135385 -0.163501
0.481535 0.193086 -0.156554
0.382575 0.123848 -0.090565
0.474222 0.163891 -0.120934
0.362880 0.175240 -0.055204
0.467738 0.194873 -0.068988
0.464018 0.171312 -0.082906
0.389937 0.206449 -0.051285
0.397775 0.184093 -0.148140
0.472985 0.139570 -0.164772
0.344709 0.160298 -0.078661
0.455076 0.206850 -0.122031
0.398721 0.116410 -0.100424
0.475230 0.164440 -0.095560
0.466114 0.142869 -0.160512
0.471625 0.145747 -0.146625
0.361302 0.160290 -0.066297
0.355652 0.158558 -0.070350
0.353348 0.156318 -0.072525
0.345864 0.154951 -0.073678
0.381696 0.121425 -0.100601
0.349551 0.153680 -0.078914
0.466843 0.141715 -0.165005
0.468656 0.178810 -0.066812
0.434204 0.217879 -0.121870
0.481912 0.161316 -0.087679
0.471424 0.160567 -0.130314
0.477296 0.145839 -0.149098
0.468885 0.145083 -0.161114
0.461096 0.175262 -0.077124
0.477806 0.170094 -0.075439
0.452821 0.214813 -0.118213
0.478602 0.159305 -0.126643
0.462081 0.167136 -0.096993
0.362194 0.149401 -0.138435
0.349983 0.152149 -0.079336
0.479387 0.169708 -0.084378
0.445989 0.211836 -0.118796
0.338936 0.146689 -0.083724
0.439454 0.224460 -0.078433
0.471218 0.176034 -0.068828
0.472128 0.158033 -0.124860
0.471998 0.160030 -0.130180
0.456617 0.173934 -0.081293
0.473215 0.168354 -0.085522
0.337020 0.148855 -0.088913
0.336985 0.146497 -0.100030
0.465002 0.136782 -0.167275
0.474352 0.138388 -0.178110
0.392269 0.122671 -0.101744
0.467319 0.176262 -0.076647
0.336327 0.137438 -0.089415
0.343275 0.144722 -0.091465
0.341088 0.138754 -0.091710
0.468442 0.141795 -0.161790
0.389380 0.117915 -0.108331
0.474353 0.162325 -0.095565
0.479814 0.170477 -0.082451
0.465977 0.145786 -0.147677
0.472192 0.145292 -0.158450
0.364349 0.155821 -0.067012
0.469835 0.171807 -0.076360
0.330567 0.139099 -0.098948
0.412933 0.149182 -0.146817
0.466787 0.155356 -0.145324
0.480181 0.155463 -0.138081
0.467990 0.154558 -0.136886
0.468778 0.151581 -0.134979
0.465296 0.148364 -0.140315
0.360844 0.150915 -0.065853
0.356330 0.150541 -0.072208
0.358412 0.147915 -0.074130
0.357369 0.150863 -0.081886
0.396488 0.124992 -0.088515
0.336534 0.135888 -0.095042
0.462425 0.186078 -0.071940
0.472735 0.152216 -0.141433
0.389444 0.166128 -0.144625
0.459516 0.170560 -0.085691
0.468065 0.169582 -0.088009
0.467765 0.169850 -0.124014
0.469001 0.162984 -0.123985
0.480557 0.145119 -0.153433
0.378673 0.140466 -0.141288
0.368942 0.151638 -0.063329
0.341480 0.133183 -0.100575
0.358981 0.145215 -0.077725
0.338314 0.131737 -0.101017
0.423490 0.222348 -0.080105
0.503845 0.192707 -0.179922
0.368019 0.146307 -0.065278
0.365230 0.146631 -0.071344
0.364463 0.140793 -0.070958
0.361256 0.143717 -0.078861
0.358899 0.139732 -0.085644
0.382787 0.118795 -0.096622
0.481133 0.198903 -0.063137
0.342838 0.135904 -0.097975
0.388580 0.121172 -0.089786
0.470105 0.145648 -0.150679
0.473267 0.171360 -0.093280
0.473260 0.163595 -0.121214
0.478692 0.173584 -0.090738
0.470256 0.153086 -0.135894
0.473693 0.171682 -0.085700
0.378798 0.121353 -0.099374
0.492082 0.202150 -0.154252
0.355440 0.138854 -0.088519
0.476847 0.188360 -0.140733
0.375989 0.146733 -0.066497
0.375393 0.141460 -0.074020
0.367478 0.141338 -0.076757
0.365500 0.142717 -0.081452
0.359954 0.139652 -0.079973
0.363652 0.135023 -0.089268
0.346102 0.128420 -0.099181
0.344179 0.126153 -0.104114
0.458077 0.144874 -0.158244
0.485488 0.159686 -0.093108
0.374785 0.141458 -0.070482
0.464545 0.151976 -0.136759
0.393887 0.122114 -0.093287
0.465616 0.158227 -0.132045
0.380794 0.144089 -0.066991
0.376282 0.142454 -0.073877
0.373729 0.137040 -0.072079
0.369523 0.137591 -0.082640
0.366513 0.133952 -0.084909
0.365802 0.133431 -0.089017
0.365431 0.134169 -0.094037
0.344741 0.125085 -0.109483
0.427662 0.216466 -0.066963
0.480017 0.214003 -0.092731
0.366591 0.151555 -0.139616
0.473841 0.213925 -0.109417
0.477882 0.146800 -0.148786
0.465691 0.145810 -0.148642
0.461974 0.179420 -0.078071
0.369349 0.135149 -0.080384
0.497271 0.191095 -0.117364
0.504669 0.198093 -0.176532
0.422531 0.218116 -0.076269
0.428257 0.182098 -0.133976
0.443152 0.221613 -0.068746
0.402806 0.142488 -0.143888
0.386272 0.140586 -0.069296
0.378853 0.140685 -0.073949
0.378655 0.130456 -0.075280
0.372530 0.131446 -0.088381
0.368487 0.130674 -0.091493
0.365799 0.133682 -0.093853
0.365395 0.130946 -0.093846
0.370373 0.129631 -0.101054
0.445555 0.191088 -0.127804
0.357395 0.132439 -0.105065
0.472618 0.168166 -0.103737
0.414184 0.161369 -0.141053
0.469443 0.170572 -0.115210
0.379768 0.123466 -0.083048
0.470625 0.169466 -0.125588
0.415520 0.174574 -0.140334
0.356384 0.132588 -0.112521
0.477164 0.170781 -0.095601
0.376394 0.129128 -0.082114
0.376809 0.133129 -0.085058
0.372840 0.129338 -0.089553
0.374380 0.126592 -0.092893
0.491511 0.191292 -0.117972
0.436418 0.227909 -0.081765
0.373713 0.127298 -0.097263
0.369551 0.121207 -0.101116
0.366631 0.128303 -0.104746
0.367938 0.128780 -0.109205
0.474002 0.192118 -0.064170
0.456070 0.230714 -0.100694
0.464938 0.146931 -0.156600
0.429186 0.221542 -0.070537
0.383612 0.130218 -0.086729
0.383386 0.127829 -0.083671
0.377696 0.124024 -0.093122
0.374637 0.122758 -0.089096
0.375971 0.124478 -0.098621
0.371778 0.121702 -0.103623
0.410455 0.161184 -0.149857
0.480628 0.194909 -0.140682
0.481172 0.195734 -0.119782
0.424760 0.181633 -0.135997
0.472434 0.214665 -0.102397
0.470337 0.146007 -0.172918
0.463813 0.147260 -0.148974
0.460416 0.142633 -0.159586
0.459557 0.139527 -0.167404
0.491393 0.198046 -0.120480
0.343179 0.184697 -0.103945
0.343450 0.187264 -0.112136
0.341253 0.182577 -0.112914
0.343070 0.193123 -0.114998
0.347582 0.163270 -0.074633
0.333157 0.162329 -0.100143
0.336165 0.161774 -0.106127
0.348920 0.176057 -0.103780
0.340457 0.190568 -0.120119
0.346424 0.190284 -0.123531
0.385364 0.154329 -0.149398
0.335816 0.156390 -0.104281
0.336203 0.164531 -0.108396
0.331978 0.170444 -0.111947
0.467678 0.169720 -0.116597
0.342157 0.180046 -0.114852
0.345237 0.186107 -0.118290
0.347834 0.182186 -0.121144
0.477186 0.203249 -0.066763
0.428999 0.185585 -0.138068
0.338996 0.153222 -0.095873
0.332304 0.145934 -0.105268
0.327753 0.151195 -0.103778
0.332118 0.161616 -0.112251
0.382662 0.148640 -0.148862
0.339760 0.174326 -0.108407
0.474880 0.211672 -0.099183
0.489692 0.193199 -0.177519
0.470356 0.201728 -0.079500
0.330714 0.140159 -0.102186
0.331907 0.149620 -0.110255
0.439350 0.187357 -0.129386
0.347721 0.174174 -0.118834
0.406259 0.184794 -0.144892
0.482735 0.157398 -0.145594
0.490067 0.198892 -0.159291
0.334546 0.158760 -0.119121
0.346311 0.177624 -0.117910
0.347224 0.183479 -0.123767
0.371975 0.234031 -0.119584
0.429300 0.215759 -0.069041
0.487746 0.199608 -0.139657
0.486839 0.200823 -0.111616
0.333560 0.140353 -0.103027
0.347831 0.176785 -0.124376
0.347157 0.180920 -0.120109
0.377151 0.146089 -0.144329
0.349059 0.137997 -0.117607
0.339043 0.150898 -0.124358
0.419978 0.204876 -0.062541
0.484376 0.198535 -0.168501
0.465191 0.175949 -0.119023
0.426388 0.189966 -0.134458
0.486486 0.194527 -0.166231
0.467034 0.167716 -0.129262
0.332918 0.139175 -0.102610
0.331187 0.138197 -0.113837
0.331268 0.148050 -0.114842
0.333302 0.147104 -0.116732
0.338174 0.155995 -0.123676
0.346501 0.166991 -0.115917
0.415807 0.156033 -0.144213
0.413856 0.182084 -0.139478
0.491176 0.194685 -0.180657
0.328215 0.142239 -0.119794
0.345484 0.162621 -0.122274
0.347316 0.173315 -0.120478
0.348531 0.176254 -0.126457
0.419288 0.164570 -0.142211
0.423370 0.164361 -0.134984
0.479872 0.184860 -0.126111
0.404714 0.135555 -0.142247
0.378415 0.234462 -0.108836
0.343792 0.169767 -0.117918
0.388140 0.136728 -0.143173
0.434041 0.175072 -0.132546
0.431611 0.171848 -0.136887
0.364239 0.214679 -0.116471
0.441970 0.197742 -0.131462
0.406377 0.135054 -0.139695
0.397051 0.246605 -0.079017
0.415651 0.163855 -0.142978
0.346657 0.168125 -0.123799
0.352163 0.172318 -0.125358
0.425139 0.164442 -0.136750
0.386178 0.145329 -0.147150
0.352932 0.141120 -0.117243
0.406659 0.172539 -0.143696
0.438186 0.214254 -0.063303
0.333526 0.134944 -0.109242
0.335683 0.134810 -0.117442
0.333136 0.140115 -0.120912
0.430448 0.163983 -0.131145
0.400412 0.145843 -0.145900
0.348708 0.160573 -0.124494
0.367949 0.166393 -0.143198
0.436846 0.186368 -0.129709
0.441609 0.221961 -0.073229
0.376253 0.222411 -0.118793
0.350817 0.158737 -0.125969
0.350241 0.165238 -0.126782
0.353954 0.180529 -0.135105
0.406191 0.191703 -0.146637
0.476286 0.193460 -0.064214
0.383526 0.199352 -0.044331
0.442567 0.205732 -0.131848
0.355006 0.172489 -0.131569
0.391696 0.168692 -0.146588
0.432530 0.167797 -0.134913
0.440071 0.221534 -0.117269
0.453361 0.224911 -0.095379
0.478544 0.212288 -0.087171
0.488802 0.203412 -0.106809
0.348904 0.160666 -0.120890
0.350747 0.165666 -0.130987
0.381834 0.152949 -0.146033
0.497087 0.197941 -0.182572
0.405371 0.147273 -0.145335
0.431811 0.209508 -0.064713
0.345044 0.131060 -0.113407
0.339911 0.131053 -0.114071
0.339796 0.130657 -0.118856
0.342134 0.138288 -0.122264
0.457375 0.220945 -0.105105
0.469583 0.188327 -0.125447
0.353009 0.161666 -0.132093
0.352731 0.167107 -0.131815
0.409366 0.137792 -0.141310
0.444181 0.190272 -0.129704
1.193362 -0.238982 0.067378
0.402982 0.213706 -0.040760
0.431668 0.215379 -0.065845
0.422242 0.224182 -0.075548
0.466588 0.182140 -0.125518
0.349166 0.145971 -0.127720
0.348961 0.157932 -0.128764
0.345553 0.142541 -0.120098
0.441122 0.216616 -0.069299
0.494266 0.195835 -0.109507
0.356201 0.165941 -0.132229
0.355958 0.169109 -0.136618
0.371331 0.149468 -0.138652
0.486671 0.197875 -0.121407
0.400100 0.154139 -0.143978
0.424870 0.151881 -0.140705
0.392492 0.199696 -0.048365
0.377919 0.165214 -0.144474
0.348504 0.124898 -0.110416
0.343724 0.132422 -0.118296
0.349350 0.130665 -0.117493
0.351770 0.155338 -0.131126
0.491938 0.194490 -0.187163
0.483656 0.203173 -0.165579
0.489042 0.206753 -0.099610
0.481606 0.195717 -0.152530
0.430561 0.220005 -0.067788
0.493818 0.202031 -0.149276
0.353737 0.148759 -0.124252
0.353809 0.147493 -0.125369
0.363769 0.158035 -0.132777
0.440509 0.174113 -0.127756
0.357043 0.152026 -0.131499
0.354695 0.156024 -0.131002
0.362039 0.160965 -0.130207
0.362087 0.167895 -0.139530
0.409775 0.178447 -0.139757
0.375851 0.231109 -0.118724
0.472045 0.196022 -0.071658
0.415373 0.138608 -0.144542
0.460393 0.195450 -0.070170
0.485161 0.201771 -0.152838
0.383191 0.164632 -0.145315
0.490308 0.186875 -0.076457
0.357797 0.142241 -0.125454
0.403012 0.215209 -0.079150
0.441265 0.184236 -0.130518
0.357355 0.137948 -0.115820
0.357306 0.140065 -0.130108
0.358109 0.146726 -0.135514
0.360483 0.150534 -0.133178
0.360518 0.155252 -0.137982
0.366839 0.161469 -0.139853
0.362925 0.163113 -0.139171
0.431674 0.204120 -0.062758
0.401351 0.178552 -0.144435
0.423237 0.198004 -0.129109
0.480968 0.201109 -0.155150
0.479969 0.139973 -0.162885
0.395847 0.176526 -0.150218
0.498890 0.194305 -0.097709
0.461708 0.221714 -0.100101
0.421755 0.146813 -0.135002
-0.151379 0.523685 0.043503
0.363004 0.128274 -0.114041
0.359244 0.136811 -0.122388
0.362000 0.134243 -0.127734
0.369985 0.154652 -0.142027
0.482277 0.191448 -0.136491
0.391167 0.229947 -0.108877
0.485167 0.195279 -0.129639
0.493889 0.190444 -0.181692
0.506001 0.193775 -0.181207
0.506028 0.193607 -0.172564
0.417070 0.151013 -0.073641
0.506166 0.190225 -0.175491
0.501321 0.193984 -0.108223
0.498323 0.194861 -0.113567
0.459598 0.224528 -0.101444
0.499168 0.191844 -0.165037
0.495895 0.193560 -0.169257
0.476308 0.217148 -0.091319
0.395209 0.127678 -0.139251
0.501220 0.194418 -0.104509
0.350884 0.133120 -0.119796
0.394705 0.125634 -0.133124
0.395734 0.126622 -0.130888
0.483913 0.170795 -0.128042
0.401872 0.127188 -0.133203
0.481474 0.202221 -0.160621
0.356262 0.132780 -0.115591
0.355574 0.138066 -0.114638
0.407230 0.131798 -0.135414
0.493974 0.186476 -0.155105
0.497475 0.187669 -0.159549
0.495242 0.192270 -0.132844
0.352375 0.132069 -0.112280
0.396323 0.125034 -0.130189
0.414242 0.137936 -0.137981
0.462697 0.168402 -0.105092
0.503864 0.191785 -0.158726
0.401866 0.123806 -0.127567
0.416101 0.135111 -0.137757
0.501744 0.195473 -0.102031
0.404935 0.128084 -0.132635
0.419022 0.138030 -0.136216
0.465961 0.211653 -0.071391
0.493165 0.184473 -0.153767
0.496952 0.185020 -0.155913
0.502241 0.194537 -0.155779
0.383794 0.154269 -0.143123
0.405895 0.125668 -0.128574
0.425917 0.135005 -0.131914
0.499973 0.190230 -0.156056
0.507194 0.191775 -0.156227
0.351992 0.128788 -0.107992
0.414104 0.130715 -0.127240
0.454326 0.216348 -0.114650
0.461710 0.218469 -0.072445
0.394942 0.118957 -0.121964
0.397835 0.120285 -0.126655
0.428299 0.141549 -0.131780
0.412203 0.167844 -0.063841
0.493230 0.181865 -0.153087
0.497747 0.189626 -0.116626
0.402635 0.238690 -0.069229
0.402251 0.229922 -0.064638
0.400570 0.228074 -0.060383
0.406344 0.227535 -0.060312
0.401559 0.229614 -0.050953
0.404056 0.224746 -0.043013
0.464252 0.213229 -0.077139
0.419102 0.190317 -0.135957
0.401387 0.242992 -0.070171
0.299786 0.483249 -0.290765
0.403277 0.235663 -0.065570
0.449058 0.212007 -0.066348
0.453018 0.214164 -0.065874
0.404970 0.242769 -0.075404
0.400931 0.227323 -0.062019
0.405073 0.224297 -0.050942
0.408635 0.215770 -0.041941
0.444902 0.205012 -0.057290
0.489955 0.184993 -0.076197
0.464077 0.211715 -0.073277
0.499198 0.175218 -0.082882
0.434906 0.175294 -0.137165
0.401340 0.239716 -0.071378
0.403705 0.231057 -0.066332
0.401852 0.229987 -0.066424
0.491099 0.183477 -0.072217
0.389719 0.200512 -0.047866
0.409994 0.166780 -0.063255
0.406747 0.159254 -0.147054
0.405957 0.217287 -0.053345
0.489472 0.191853 -0.068781
0.396899 0.155305 -0.147763
0.451429 0.209924 -0.067468
0.407783 0.223988 -0.056356
0.477664 0.205634 -0.116643
0.394381 0.199539 -0.055268
0.390225 0.192858 -0.048926
0.454233 0.219674 -0.070417
0.405199 0.241318 -0.081980
0.406381 0.240085 -0.075258
0.407056 0.231813 -0.077076
0.407651 0.229687 -0.072959
0.403386 0.226208 -0.071291
0.487742 0.185405 -0.065608
0.463536 0.210938 -0.072732
0.448698 0.220530 -0.068454
0.419847 0.159002 -0.068960
0.497555 0.186750 -0.081861
1.019804 0.348607 0.087530
0.399821 0.219331 -0.075410
0.453613 0.222734 -0.079840
0.485512 0.163561 -0.133128
0.407653 0.218286 -0.058750
0.405969 0.225526 -0.081090
0.500552 0.186873 -0.091707
0.391974 0.191866 -0.059671
0.472476 0.188991 -0.066867
0.422762 0.157152 -0.072657
0.405492 0.218918 -0.072646
0.388036 0.171525 -0.148256
0.390994 0.187587 -0.060588
0.405812 0.210113 -0.072603
0.405412 0.213071 -0.065829
0.406830 0.203846 -0.059367
0.404406 0.198634 -0.063842
0.390942 0.182336 -0.063309
0.466536 0.209175 -0.117760
0.392340 0.176013 -0.055950
0.417008 0.194472 -0.133901
0.398265 0.180756 -0.065083
0.397408 0.176133 -0.060561
0.395694 0.174971 -0.061169
0.475237 0.151605 -0.160181
0.468048 0.153454 -0.151344
0.487984 0.172200 -0.126729
0.470542 0.191414 -0.125296
0.429577 0.204567 -0.061340
0.401320 0.200784 -0.148793
0.441877 0.204177 -0.129953
0.471737 0.174410 -0.124964
0.401127 0.177710 -0.067018
0.402748 0.174909 -0.063343
0.460059 0.188881 -0.125731
0.477357 0.201667 -0.118590
0.456878 0.198770 -0.123619
0.437760 0.192407 -0.128685
0.472906 0.146294 -0.159810
0.410218 0.222713 -0.079602
0.374897 0.241258 -0.105603
0.380260 0.232194 -0.106782
0.386289 0.235712 -0.104007
0.383857 0.233987 -0.101038
0.387237 0.232207 -0.103358
0.358679 0.211741 -0.109662
-0.269036 0.271115 -0.327602
0.403368 0.246693 -0.084360
0.489201 0.200397 -0.087126
0.381413 0.238329 -0.109430
0.369551 0.160918 -0.146860
0.494904 0.198790 -0.182685
0.491173 0.197890 -0.081122
0.403541 0.241645 -0.086552
0.486137 0.203246 -0.159749
0.379555 0.232690 -0.114712
0.403059 0.237094 -0.087066
0.404216 0.223696 -0.062639
0.479806 0.206426 -0.116336
0.392118 0.234941 -0.095047
0.403805 0.227830 -0.062686
0.386576 0.228212 -0.110060
0.392343 0.226222 -0.101452
0.393582 0.227580 -0.096419
0.404766 0.234926 -0.081258
0.400699 0.216580 -0.068587
0.403867 0.219888 -0.064088
0.407054 0.224251 -0.060043
0.382815 0.223065 -0.119146
0.382914 0.227922 -0.113943
0.435066 0.180508 -0.135180
0.405444 0.232401 -0.091543
0.504650 0.192603 -0.095589
0.390368 0.226049 -0.105457
0.414836 0.148869 -0.141496
0.401204 0.151010 -0.144907
0.397521 0.230485 -0.097391
0.403800 0.234022 -0.088659
0.480303 0.198407 -0.144188
0.494678 0.195803 -0.167889
0.407881 0.226246 -0.086799
0.402219 0.214291 -0.063486
0.427435 0.174496 -0.140169
0.379189 0.220911 -0.115625
0.384241 0.157895 -0.145901
0.387029 0.161123 -0.143518
0.390746 0.154876 -0.145185
0.387647 0.217852 -0.109541
0.386244 0.220831 -0.105822
0.394030 0.223531 -0.100698
0.416613 0.168639 -0.140365
0.396595 0.227783 -0.098108
0.399230 0.225350 -0.095358
0.384305 0.214886 -0.117678
0.386878 0.218105 -0.111375
0.385841 0.142407 -0.146037
0.382239 0.221183 -0.121807
0.454584 0.201473 -0.125472
0.417314 0.171331 -0.141378
0.453278 0.194313 -0.129404
0.403288 0.223121 -0.101481
0.409018 0.224360 -0.095845
0.410874 0.226766 -0.091878
0.412093 0.222646 -0.081827
0.398596 0.146434 -0.147129
0.427981 0.179606 -0.135911
0.384111 0.212910 -0.126809
0.391733 0.216759 -0.124508
0.392477 0.210941 -0.115132
0.392403 0.214156 -0.110850
0.412648 0.150717 -0.144671
0.382263 0.216616 -0.129582
0.391787 0.209594 -0.117538
0.418854 0.228197 -0.093183
0.425726 0.230274 -0.091108
0.420562 0.229392 -0.086875
0.439770 0.226752 -0.075278
0.486612 0.203355 -0.177058
0.384627 0.212605 -0.132451
0.392125 0.212771 -0.131728
0.392765 0.216965 -0.122102
0.392735 0.211662 -0.121013
0.400427 0.211509 -0.116675
0.397873 0.209961 -0.111854
0.364385 0.222256 -0.115127
0.428496 0.230672 -0.082868
0.408889 0.139885 -0.141644
0.432459 0.231428 -0.092230
0.429505 0.228837 -0.086286
0.393748 0.214140 -0.123748
0.424516 0.226172 -0.094638
0.432734 0.227917 -0.096403
0.440295 0.233274 -0.085047
0.501280 0.193630 -0.108728
0.392830 0.206885 -0.132315
0.396299 0.207854 -0.126080
0.398540 0.210558 -0.127758
0.399692 0.210725 -0.115844
0.403926 0.210561 -0.119098
0.394989 0.242027 -0.094824
0.424777 0.231280 -0.100493
0.435466 0.231267 -0.086660
0.411441 0.139414 -0.137024
0.429218 0.237062 -0.099152
0.436975 0.231822 -0.091302
0.489608 0.201941 -0.102434
0.393755 0.174443 -0.148317
0.433248 0.230890 -0.104418
0.434806 0.229841 -0.095486
0.436266 0.232266 -0.095589
0.441882 0.230067 -0.087732
0.407368 0.154368 -0.145230
0.396292 0.169217 -0.147396
0.402493 0.208275 -0.133549
0.400721 0.207795 -0.128547
0.404925 0.210328 -0.122681
0.375240 0.160072 -0.147256
0.402379 0.211071 -0.132776
0.426987 0.231549 -0.107612
0.446045 0.228443 -0.084466
0.446660 0.221952 -0.080389
0.408977 0.190481 -0.138097
0.422207 0.177455 -0.143031
0.439085 0.228264 -0.108495
0.443324 0.231019 -0.101760
0.446674 0.230278 -0.101684
0.442757 0.235270 -0.095726
0.445487 0.230354 -0.092669
0.449150 0.223383 -0.075287
0.448612 0.219803 -0.075223
0.342328 0.137432 -0.120204
0.405087 0.202740 -0.130141
0.411650 0.207409 -0.123657
0.445892 0.231492 -0.091495
0.401091 0.204243 -0.139449
0.412361 0.213121 -0.134785
0.491380 0.199917 -0.108435
0.445973 0.229239 -0.112590
0.449645 0.233001 -0.108289
0.445544 0.224241 -0.096162
0.451587 0.229161 -0.092451
0.453702 0.228721 -0.092349
0.453754 0.227799 -0.083764
0.454800 0.222404 -0.076616
0.394713 0.246643 -0.087257
0.387931 0.233625 -0.096411
0.375398 0.221179 -0.120006
0.407364 0.184942 -0.141854
0.417399 0.186229 -0.136561
0.378334 0.167516 -0.145162
0.389402 0.170990 -0.144404
0.398576 0.195611 -0.148474
0.419793 0.166015 -0.142601
0.395976 0.138170 -0.142909
0.366245 0.215209 -0.118303
0.372796 0.230609 -0.111646
0.367051 0.224978 -0.119020
0.406861 0.180694 -0.143918
0.425800 0.163051 -0.142174
0.376948 0.143326 -0.140065
0.155342 0.302693 -0.342511
0.412535 0.190512 -0.135878
0.370497 0.223371 -0.116998
0.390185 0.242010 -0.088467
0.434180 0.207411 -0.126378
0.393175 0.171065 -0.145255
0.433056 0.162751 -0.130748
0.376319 0.153351 -0.141793
0.356065 0.179014 -0.132805
0.407602 0.185525 -0.142601
0.343231 0.153781 -0.126741
0.390832 0.191901 -0.152043
0.397923 0.239901 -0.092684
0.347863 0.196729 -0.124013
0.367125 0.167869 -0.141065
0.414635 0.199236 -0.146238
0.394978 0.238692 -0.092637
0.363221 0.178818 -0.137166
0.463156 0.182917 -0.126689
0.358648 0.215139 -0.117908
0.434661 0.159000 -0.128753
0.454812 0.181244 -0.124349
0.432145 0.154694 -0.134549
0.432046 0.150567 -0.130689
0.428576 0.147094 -0.135256
0.423853 0.144040 -0.134297
0.418342 0.137877 -0.136293
0.463895 0.185851 -0.124527
0.456547 0.178127 -0.122998
0.427975 0.149048 -0.131340
0.423539 0.144197 -0.134296
0.419355 0.142480 -0.142862
0.461032 0.192328 -0.122433
0.344034 0.201190 -0.120631
0.350645 0.205266 -0.120551
0.353147 0.209028 -0.118319
0.340083 0.195448 -0.123440
0.349122 0.202782 -0.123774
0.353268 0.201845 -0.117915
0.358676 0.208832 -0.121385
0.438985 0.207856 -0.119031
0.475913 0.171290 -0.134066
0.393683 0.242411 -0.080583
0.438997 0.212308 -0.121699
0.448299 0.216990 -0.117772
0.464405 0.155826 -0.145395
0.338997 0.168755 -0.104255
0.342413 0.173071 -0.112637
0.348998 0.188568 -0.128321
0.355149 0.196740 -0.126617
0.359975 0.199778 -0.125416
0.358050 0.207138 -0.121156
0.365098 0.208782 -0.118945
0.368874 0.213856 -0.125871
0.374833 0.222590 -0.120548
0.342119 0.170556 -0.116275
0.468643 0.155555 -0.149778
0.338508 0.165246 -0.114524
0.351713 0.187510 -0.129260
0.355773 0.193998 -0.127448
0.428832 0.223902 -0.070712
0.356184 0.194974 -0.134112
0.364254 0.197163 -0.131073
0.361654 0.203791 -0.133176
0.367242 0.206355 -0.131965
0.372629 0.203316 -0.127252
0.371083 0.208885 -0.132187
0.370232 0.215778 -0.124673
0.375690 0.214275 -0.127534
0.342592 0.159968 -0.119692
0.354825 0.189679 -0.133158
0.336495 0.165333 -0.119645
0.349392 0.180007 -0.136271
0.377253 0.211662 -0.129141
0.388745 0.214795 -0.105425
0.396262 0.223682 -0.101279
0.461966 0.149178 -0.154121
0.337242 0.155309 -0.122883
0.362901 0.195824 -0.130959
0.359644 0.194406 -0.133430
0.370573 0.200566 -0.136518
0.375520 0.207196 -0.135747
0.376260 0.210268 -0.133637
0.381460 0.211054 -0.128593
0.360704 0.186048 -0.136549
0.361617 0.187726 -0.133868
0.364826 0.189535 -0.135144
0.368602 0.197862 -0.137182
0.391030 0.212208 -0.109660
0.398657 0.215041 -0.106082
0.403461 0.219866 -0.104796
0.379740 0.202856 -0.140001
0.401268 0.216119 -0.108398
0.361598 0.177968 -0.137733
0.369684 0.187803 -0.138023
0.368497 0.189169 -0.139724
0.379148 0.196736 -0.136964
0.383732 0.207984 -0.138961
0.397560 0.215710 -0.108978
0.408865 0.226123 -0.101050
0.395973 0.211077 -0.112858
0.402655 0.220324 -0.114167
0.415036 0.226801 -0.099140
0.472556 0.213049 -0.113356
0.387973 0.209213 -0.138378
0.414693 0.226705 -0.094575
0.416714 0.230186 -0.102744
0.363727 0.168071 -0.140346
0.366991 0.172128 -0.140654
0.366915 0.174742 -0.144660
0.373785 0.180581 -0.139639
0.369650 0.185388 -0.140321
0.375767 0.188083 -0.138753
0.379655 0.194505 -0.140029
0.377124 0.197935 -0.148624
0.385957 0.198813 -0.144127
0.386846 0.205788 -0.140490
-0.019063 0.122367 0.099216
0.393906 0.213061 -0.135908
0.419854 0.224235 -0.103976
0.406972 0.211524 -0.117271
0.408187 0.217822 -0.113837
0.413472 0.218227 -0.109060
0.419100 0.230155 -0.106191
0.418976 0.229428 -0.104395
0.392134 0.208590 -0.139177
0.421184 0.230595 -0.108781
0.370291 0.170478 -0.140892
0.376652 0.174754 -0.140060
0.375713 0.175908 -0.141429
0.375344 0.177573 -0.141800
0.378918 0.185067 -0.144442
0.386457 0.189147 -0.146573
0.390993 0.194147 -0.143300
0.388465 0.198252 -0.140605
0.389871 0.199003 -0.142662
0.392217 0.207752 -0.139965
0.399920 0.209460 -0.143483
0.409417 0.208555 -0.119134
0.411310 0.208795 -0.118712
0.410573 0.215131 -0.117510
0.413618 0.215427 -0.113070
0.415016 0.217229 -0.116184
0.423860 0.225305 -0.109651
0.424190 0.228849 -0.113359
0.429831 0.228110 -0.103062
0.400843 0.224572 -0.042127
0.420736 0.214491 -0.114394
0.423323 0.220198 -0.115623
0.375552 0.177739 -0.147847
0.379631 0.178943 -0.143458
0.382603 0.183107 -0.146211
0.387316 0.188530 -0.151024
0.389562 0.190956 -0.147015
0.391364 0.195902 -0.150195
0.395210 0.204295 -0.142813
0.401761 0.206502 -0.139333
0.435071 0.231092 -0.106041
0.378479 0.172046 -0.148072
0.409345 0.206036 -0.121288
0.413530 0.210275 -0.122895
0.423378 0.216313 -0.122593
0.424994 0.224166 -0.120934
0.429356 0.223936 -0.119282
0.432780 0.226092 -0.112753
0.432509 0.225367 -0.113769
0.393186 0.184916 -0.146916
0.406590 0.201991 -0.143591
0.384264 0.173856 -0.148383
0.412723 0.207159 -0.132891
0.358655 0.212575 -0.114768
0.371761 0.219315 -0.110122
0.358320 0.214926 -0.112697
0.370343 0.225134 -0.106206
0.351331 0.202420 -0.116380
0.345789 0.198015 -0.113047
0.375211 0.228533 -0.104620
0.374698 0.228080 -0.108398
0.360221 0.202142 -0.111448
0.361601 0.212741 -0.106232
0.362175 0.215238 -0.112714
0.360633 0.205347 -0.110319
0.362506 0.198185 -0.113638
0.355354 0.198259 -0.109572
0.343812 0.187722 -0.111997
0.375569 0.223908 -0.108506
0.371486 0.223935 -0.104800
0.371199 0.219556 -0.107097
0.368739 0.215932 -0.108719
0.363318 0.211017 -0.106368
0.351075 0.195547 -0.112563
0.351774 0.191599 -0.108072
0.349502 0.193153 -0.104051
0.378136 0.232222 -0.094827
0.379559 0.224765 -0.104216
0.368963 0.217859 -0.105730
0.356768 0.194029 -0.105936
0.379280 0.225879 -0.100838
0.360054 0.201584 -0.106649
0.348120 0.190909 -0.102871
0.345577 0.185097 -0.105251
0.379084 0.228325 -0.106021
0.368892 0.206750 -0.103377
0.364687 0.204679 -0.107273
0.381744 0.235885 -0.093368
0.384135 0.230433 -0.089209
0.370387 0.211939 -0.101240
0.354368 0.192849 -0.098919
0.345572 0.187640 -0.101297
0.345085 0.179108 -0.096630
0.339580 0.174745 -0.105099
0.341034 0.174716 -0.105200
0.380686 0.227475 -0.096459
0.384119 0.221900 -0.096407
0.370381 0.217448 -0.100105
0.359337 0.197519 -0.103232
0.352999 0.198364 -0.102517
0.350842 0.189469 -0.098212
0.340286 0.168237 -0.104189
0.364404 0.198440 -0.100581
0.354169 0.188428 -0.097253
0.381258 0.231246 -0.086635
0.372830 0.207886 -0.095389
0.365938 0.207631 -0.096985
0.358203 0.194108 -0.099764
0.339978 0.172398 -0.094952
0.339545 0.177228 -0.095716
0.334601 0.169241 -0.100263
0.386146 0.239395 -0.088937
0.384274 0.230812 -0.091561
0.376785 0.219509 -0.090756
0.372665 0.211850 -0.096805
0.356771 0.193978 -0.095210
0.386983 0.240471 -0.084056
0.364154 0.195161 -0.093800
0.357296 0.189949 -0.091498
0.352377 0.188382 -0.093821
0.467793 0.195575 -0.072739
0.378113 0.223950 -0.080637
0.375945 0.204902 -0.092853
0.367576 0.201626 -0.092887
0.364387 0.192822 -0.087534
0.340873 0.167558 -0.090380
0.336854 0.165738 -0.095683
0.337692 0.158348 -0.094139
0.390928 0.230698 -0.086549
0.384473 0.230535 -0.083724
0.379344 0.213906 -0.085475
0.362361 0.192482 -0.087206
0.344201 0.173452 -0.087522
0.333154 0.155455 -0.098178
0.393205 0.239256 -0.080337
0.378880 0.219506 -0.081970
0.380296 0.214622 -0.083925
0.364712 0.195910 -0.089334
0.357016 0.190060 -0.081670
0.402932 0.242821 -0.077630
0.397037 0.240499 -0.078457
0.382119 0.221838 -0.077607
0.374671 0.217859 -0.082085
0.369782 0.203646 -0.083918
0.366048 0.200103 -0.090283
0.355191 0.189411 -0.090950
0.352793 0.183435 -0.085074
0.338259 0.161291 -0.085780
0.344503 0.163150 -0.086199
0.340873 0.161382 -0.088178
0.384511 0.235214 -0.074347
0.383695 0.221357 -0.078156
0.375909 0.207598 -0.082576
0.358022 0.189068 -0.086977
0.344177 0.168914 -0.084775
0.339384 0.154126 -0.092410
0.335078 0.146554 -0.093851
0.393033 0.233855 -0.068649
0.364045 0.192565 -0.086185
0.355517 0.185285 -0.080176
0.349703 0.180282 -0.081799
0.335801 0.150238 -0.093204
0.396604 0.242690 -0.068396
0.380928 0.213815 -0.073173
0.372604 0.195250 -0.083273
0.351546 0.175881 -0.084542
0.381548 0.218865 -0.074888
0.375528 0.206221 -0.080759
0.370574 0.203028 -0.081950
0.362800 0.184173 -0.078824
0.351954 0.176726 -0.081174
0.345449 0.169321 -0.075981
0.343802 0.164769 -0.082357
0.345673 0.158512 -0.082552
0.344726 0.156174 -0.082180
0.387957 0.226681 -0.068833
0.360584 0.182285 -0.079514
0.354236 0.177891 -0.074205
0.339336 0.155093 -0.085888
0.396538 0.232551 -0.066351
0.379237 0.211464 -0.070031
0.368996 0.196577 -0.077044
0.367529 0.196902 -0.074168
0.361121 0.180504 -0.077914
0.365432 0.741880 -0.297682
0.376067 0.202760 -0.069866
0.388719 0.226045 -0.065275
0.361772 0.182522 -0.073282
0.350284 0.177915 -0.074585
0.352181 0.169770 -0.072448
0.345683 0.167171 -0.074298
0.345894 0.165899 -0.076475
0.397794 0.231367 -0.058485
0.367942 0.184630 -0.071002
0.356228 0.168383 -0.073470
0.351937 0.171128 -0.075611
0.382169 0.215361 -0.067129
0.382221 0.209131 -0.064281
0.375657 0.201206 -0.069373
0.375245 0.196994 -0.067714
0.373277 0.194905 -0.070588
0.432158 0.211586 -0.060835
0.385612 0.213142 -0.064821
0.363151 0.172223 -0.072857
0.349339 0.166470 -0.067600
0.345575 0.164791 -0.072654
0.397543 0.224916 -0.059632
0.394115 0.221810 -0.058148
0.388788 0.214969 -0.066220
0.382780 0.206255 -0.068912
0.366554 0.184049 -0.067235
0.366791 0.183461 -0.067723
0.354102 0.172097 -0.066949
0.371456 0.191935 -0.065100
0.355085 0.180340 -0.060145
