# This PCD file was generated using the MATLAB® pcwrite function
# from Computer Vision System Toolbox®.
# .PCD v.7 - Point Cloud Data file format
VERSION .7
FIELDS x y z rgb
SIZE 4 4 4 4
TYPE F F F F
COUNT 1 1 1 1
WIDTH 1109
HEIGHT 1
VIEWPOINT 0 0 0 1 0 0 0
POINTS 1109
DATA ascii
0.326707 0.190240 0.187945 3.573311084e-43
0.383051 0.283865 0.166964 3.573311084e-43
0.341500 0.174806 0.190265 3.573311084e-43
0.391851 0.175453 0.139392 3.573311084e-43
0.387465 0.170689 0.158428 3.573311084e-43
0.381270 0.196502 0.129097 3.573311084e-43
0.385016 0.230512 0.157174 3.573311084e-43
0.373966 0.171070 0.140415 3.573311084e-43
0.407533 0.145703 0.183604 3.573311084e-43
0.342427 0.194036 0.212017 3.573311084e-43
0.314603 0.260786 0.155487 3.573311084e-43
0.304988 0.271600 0.177796 3.573311084e-43
0.313074 0.283678 0.169287 3.573311084e-43
0.309107 0.283915 0.164255 3.573311084e-43
0.315419 0.281713 0.159129 3.573311084e-43
0.352051 0.308955 0.209343 3.573311084e-43
0.344839 0.286488 0.184952 3.573311084e-43
0.361600 0.190711 0.112355 3.573311084e-43
0.365781 0.229400 0.203068 3.573311084e-43
0.305635 0.253759 0.141273 3.573311084e-43
0.407052 0.165527 0.155124 3.573311084e-43
0.382526 0.180214 0.142520 3.573311084e-43
0.378863 0.199761 0.132457 3.573311084e-43
0.382780 0.259495 0.146107 3.573311084e-43
0.394295 0.273849 0.197138 3.573311084e-43
0.310528 0.232256 0.175457 3.573311084e-43
0.304357 0.232320 0.184608 3.573311084e-43
0.288468 0.258565 0.172102 3.573311084e-43
0.312281 0.236843 0.184545 3.573311084e-43
0.363924 0.224156 0.145119 3.573311084e-43
0.375567 0.165096 0.137562 3.573311084e-43
0.388525 0.229230 0.178929 3.573311084e-43
0.393658 0.259326 0.150797 3.573311084e-43
0.412011 0.201636 0.165504 3.573311084e-43
0.349106 0.233166 0.148492 3.573311084e-43
0.356345 0.234517 0.145310 3.573311084e-43
0.422411 0.157117 0.213353 3.573311084e-43
0.384626 0.196019 0.154755 3.573311084e-43
0.367988 0.235544 0.146069 3.573311084e-43
0.344973 0.315552 0.188741 3.573311084e-43
0.295293 0.188396 0.173421 3.573311084e-43
0.424747 0.225036 0.174039 3.573311084e-43
0.434346 0.211452 0.178578 3.573311084e-43
0.319320 0.194341 0.174207 3.573311084e-43
0.293832 0.223565 0.206527 3.573311084e-43
0.368139 0.223417 0.159404 3.573311084e-43
0.375685 0.165900 0.139538 3.573311084e-43
0.382894 0.221581 0.178531 3.573311084e-43
0.382277 0.223996 0.177122 3.573311084e-43
0.431759 0.200908 0.175638 3.573311084e-43
0.317246 0.255715 0.180892 3.573311084e-43
0.295273 0.270819 0.166268 3.573311084e-43
0.313161 0.278799 0.173039 3.573311084e-43
0.352697 0.208922 0.143960 3.573311084e-43
0.373236 0.247916 0.165088 3.573311084e-43
0.372661 0.306822 0.186658 3.573311084e-43
0.349923 0.183627 0.182181 3.573311084e-43
0.369858 0.182027 0.174642 3.573311084e-43
0.319115 0.192458 0.158512 3.573311084e-43
0.358127 0.240823 0.162760 3.573311084e-43
0.385040 0.208169 0.138836 3.573311084e-43
0.329352 0.183400 0.183239 3.573311084e-43
0.362887 0.284682 0.152794 3.573311084e-43
0.378887 0.260375 0.146373 3.573311084e-43
0.343663 0.171667 0.151262 3.573311084e-43
0.360816 0.218496 0.160168 3.573311084e-43
0.384024 0.161962 0.145379 3.573311084e-43
0.407979 0.163659 0.197754 3.573311084e-43
0.374484 0.195658 0.173393 3.573311084e-43
0.399365 0.204767 0.167036 3.573311084e-43
0.421491 0.158281 0.183130 3.573311084e-43
0.381486 0.166491 0.146192 3.573311084e-43
0.398615 0.187764 0.177018 3.573311084e-43
0.294147 0.222243 0.190026 3.573311084e-43
0.363960 0.207052 0.164995 3.573311084e-43
0.392579 0.176262 0.147819 3.573311084e-43
0.359265 0.202466 0.149650 3.573311084e-43
0.393294 0.242273 0.181532 3.573311084e-43
0.311329 0.269130 0.167675 3.573311084e-43
0.303761 0.281959 0.160870 3.573311084e-43
0.315973 0.279207 0.146486 3.573311084e-43
0.317132 0.285832 0.157683 3.573311084e-43
0.297059 0.278807 0.145185 3.573311084e-43
0.380201 0.245490 0.148444 3.573311084e-43
0.377412 0.256410 0.159381 3.573311084e-43
0.373855 0.249967 0.155629 3.573311084e-43
0.309892 0.229055 0.210592 3.573311084e-43
0.322896 0.171787 0.162989 3.573311084e-43
0.352128 0.215304 0.216896 3.573311084e-43
0.332419 0.308642 0.192499 3.573311084e-43
0.343093 0.325622 0.186630 3.573311084e-43
0.391399 0.304226 0.213978 3.573311084e-43
0.293316 0.234222 0.175654 3.573311084e-43
0.318164 0.242424 0.174912 3.573311084e-43
0.363643 0.195744 0.153928 3.573311084e-43
0.353538 0.265128 0.149643 3.573311084e-43
0.374239 0.289439 0.180280 3.573311084e-43
0.286957 0.236354 0.166029 3.573311084e-43
0.327629 0.234227 0.163269 3.573311084e-43
0.297808 0.256863 0.165432 3.573311084e-43
0.304629 0.236281 0.172589 3.573311084e-43
0.361277 0.162740 0.147285 3.573311084e-43
0.379469 0.172534 0.164271 3.573311084e-43
0.373036 0.270889 0.131879 3.573311084e-43
0.352922 0.197685 0.124787 3.573311084e-43
0.394873 0.259254 0.164245 3.573311084e-43
0.400687 0.296624 0.177996 3.573311084e-43
0.380896 0.294172 0.166364 3.573311084e-43
0.403746 0.204863 0.183835 3.573311084e-43
0.312968 0.220423 0.175723 3.573311084e-43
0.388127 0.283614 0.157332 3.573311084e-43
0.369907 0.209476 0.166886 3.573311084e-43
0.391143 0.158479 0.167417 3.573311084e-43
0.386772 0.158126 0.191001 3.573311084e-43
0.316307 0.189486 0.193021 3.573311084e-43
0.414308 0.140601 0.197443 3.573311084e-43
0.361520 0.270699 0.164413 3.573311084e-43
0.445953 0.200053 0.160910 3.573311084e-43
0.352969 0.218533 0.163364 3.573311084e-43
0.383373 0.189111 0.169536 3.573311084e-43
0.380798 0.256357 0.210246 3.573311084e-43
0.352042 0.167168 0.161030 3.573311084e-43
0.344523 0.302324 0.200204 3.573311084e-43
0.345564 0.326426 0.183100 3.573311084e-43
0.335013 0.325184 0.194681 3.573311084e-43
0.408378 0.188543 0.171783 3.573311084e-43
0.327204 0.173438 0.186981 3.573311084e-43
0.394994 0.141046 0.186870 3.573311084e-43
0.372743 0.209392 0.180079 3.573311084e-43
0.314377 0.267536 0.156553 3.573311084e-43
0.354537 0.195960 0.208421 3.573311084e-43
0.343580 0.171086 0.191502 3.573311084e-43
0.329492 0.195876 0.217636 3.573311084e-43
0.348259 0.226909 0.214403 3.573311084e-43
0.317772 0.269257 0.159823 3.573311084e-43
0.327285 0.293169 0.174429 3.573311084e-43
0.374116 0.307966 0.189334 3.573311084e-43
0.393271 0.181404 0.146252 3.573311084e-43
0.292635 0.216528 0.171101 3.573311084e-43
0.371169 0.174455 0.202232 3.573311084e-43
0.344352 0.198747 0.228312 3.573311084e-43
0.328761 0.201819 0.225421 3.573311084e-43
0.311246 0.225972 0.161056 3.573311084e-43
0.358660 0.253946 0.141753 3.573311084e-43
0.384642 0.278067 0.150841 3.573311084e-43
0.371414 0.218982 0.159387 3.573311084e-43
0.359941 0.159826 0.140734 3.573311084e-43
0.364050 0.166450 0.130412 3.573311084e-43
0.387341 0.184045 0.157964 3.573311084e-43
0.387433 0.172640 0.171424 3.573311084e-43
0.342795 0.166386 0.161150 3.573311084e-43
0.360307 0.165910 0.172479 3.573311084e-43
0.372934 0.213006 0.194931 3.573311084e-43
0.344275 0.180115 0.171109 3.573311084e-43
0.367000 0.230760 0.239962 3.573311084e-43
0.366066 0.239943 0.225559 3.573311084e-43
0.354169 0.187992 0.189966 3.573311084e-43
0.384428 0.250592 0.224096 3.573311084e-43
0.365192 0.243166 0.220644 3.573311084e-43
0.295854 0.234533 0.169516 3.573311084e-43
0.300699 0.242250 0.170239 3.573311084e-43
0.307927 0.239520 0.160646 3.573311084e-43
0.381744 0.233630 0.154033 3.573311084e-43
0.378049 0.235619 0.174607 3.573311084e-43
0.324788 0.269952 0.159181 3.573311084e-43
0.324945 0.266804 0.152462 3.573311084e-43
0.314145 0.292827 0.175049 3.573311084e-43
0.311576 0.276175 0.154539 3.573311084e-43
0.323100 0.275355 0.155816 3.573311084e-43
0.397274 0.223481 0.163893 3.573311084e-43
0.373130 0.296462 0.162185 3.573311084e-43
0.362163 0.189536 0.187292 3.573311084e-43
0.387009 0.218636 0.217563 3.573311084e-43
0.352921 0.205570 0.220187 3.573311084e-43
0.352242 0.168097 0.169033 3.573311084e-43
0.395611 0.200213 0.161638 3.573311084e-43
0.360729 0.241546 0.238323 3.573311084e-43
0.376643 0.263997 0.209698 3.573311084e-43
0.308161 0.226916 0.176795 3.573311084e-43
0.354369 0.189219 0.120270 3.573311084e-43
0.372057 0.266411 0.161533 3.573311084e-43
0.340108 0.166273 0.181277 3.573311084e-43
0.354153 0.175755 0.126660 3.573311084e-43
0.378673 0.190146 0.172965 3.573311084e-43
0.328644 0.306900 0.199142 3.573311084e-43
0.342006 0.328237 0.200055 3.573311084e-43
0.335655 0.171140 0.138573 3.573311084e-43
0.365361 0.260273 0.172842 3.573311084e-43
0.342250 0.168975 0.173352 3.573311084e-43
0.344403 0.191359 0.169375 3.573311084e-43
0.357318 0.171601 0.196503 3.573311084e-43
0.430758 0.159051 0.209323 3.573311084e-43
0.345080 0.303855 0.195082 3.573311084e-43
0.381769 0.187333 0.141776 3.573311084e-43
0.317785 0.261402 0.162822 3.573311084e-43
0.379643 0.210416 0.197329 3.573311084e-43
0.366172 0.224625 0.214003 3.573311084e-43
0.450668 0.213353 0.180585 3.573311084e-43
0.413909 0.195515 0.175787 3.573311084e-43
0.390467 0.193608 0.162303 3.573311084e-43
0.449845 0.150793 0.217541 3.573311084e-43
0.406891 0.163044 0.190963 3.573311084e-43
0.378616 0.229551 0.169546 3.573311084e-43
0.377994 0.252821 0.219211 3.573311084e-43
0.421433 0.220704 0.176043 3.573311084e-43
0.395413 0.196247 0.171322 3.573311084e-43
0.367728 0.172412 0.193216 3.573311084e-43
0.291595 0.204626 0.167632 3.573311084e-43
0.365347 0.239870 0.209111 3.573311084e-43
0.375046 0.197143 0.168644 3.573311084e-43
0.446683 0.211078 0.175756 3.573311084e-43
0.305704 0.257811 0.163418 3.573311084e-43
0.318831 0.201475 0.144532 3.573311084e-43
0.395410 0.179870 0.183384 3.573311084e-43
0.328310 0.189050 0.152035 3.573311084e-43
0.411583 0.228214 0.201928 3.573311084e-43
0.351004 0.275521 0.148699 3.573311084e-43
0.305635 0.212416 0.177702 3.573311084e-43
0.349440 0.210070 0.226153 3.573311084e-43
0.303199 0.224580 0.176739 3.573311084e-43
0.309085 0.225423 0.153802 3.573311084e-43
0.313397 0.253968 0.154514 3.573311084e-43
0.320331 0.267632 0.147020 3.573311084e-43
0.325381 0.261622 0.152204 3.573311084e-43
0.337301 0.287941 0.152026 3.573311084e-43
0.320686 0.295970 0.144532 3.573311084e-43
0.322597 0.277470 0.160620 3.573311084e-43
0.403347 0.209906 0.171902 3.573311084e-43
0.432512 0.165451 0.205249 3.573311084e-43
0.364442 0.167618 0.151419 3.573311084e-43
0.422146 0.178599 0.196696 3.573311084e-43
0.381019 0.285559 0.172738 3.573311084e-43
0.371851 0.185268 0.162293 3.573311084e-43
0.449319 0.197623 0.157129 3.573311084e-43
0.314304 0.192883 0.185449 3.573311084e-43
0.311605 0.215456 0.163472 3.573311084e-43
0.307495 0.209857 0.157584 3.573311084e-43
0.305713 0.224610 0.165262 3.573311084e-43
0.322469 0.225475 0.163086 3.573311084e-43
0.325184 0.241603 0.169415 3.573311084e-43
0.298928 0.241104 0.162999 3.573311084e-43
0.307769 0.257620 0.165423 3.573311084e-43
0.412854 0.173472 0.210457 3.573311084e-43
0.388517 0.289703 0.217429 3.573311084e-43
0.279592 0.205575 0.188519 3.573311084e-43
0.380568 0.195678 0.182307 3.573311084e-43
0.401468 0.151935 0.193211 3.573311084e-43
0.382196 0.221732 0.161244 3.573311084e-43
0.398965 0.190635 0.163524 3.573311084e-43
0.393008 0.162806 0.189788 3.573311084e-43
0.386860 0.281913 0.172448 3.573311084e-43
0.319315 0.256799 0.131773 3.573311084e-43
0.370633 0.205446 0.183750 3.573311084e-43
0.393750 0.194710 0.198720 3.573311084e-43
0.325159 0.187527 0.165475 3.573311084e-43
0.412551 0.154007 0.205506 3.573311084e-43
0.402099 0.166788 0.184228 3.573311084e-43
0.340398 0.190500 0.148626 3.573311084e-43
0.307564 0.220468 0.152552 3.573311084e-43
0.318444 0.245889 0.168612 3.573311084e-43
0.306289 0.204201 0.167828 3.573311084e-43
0.345975 0.151286 0.153713 3.573311084e-43
0.329757 0.169538 0.159167 3.573311084e-43
0.367433 0.194404 0.155976 3.573311084e-43
0.415680 0.200478 0.181171 3.573311084e-43
0.367606 0.165398 0.143860 3.573311084e-43
0.310524 0.190492 0.156472 3.573311084e-43
0.326077 0.173617 0.152100 3.573311084e-43
0.305284 0.177043 0.166511 3.573311084e-43
0.326408 0.257294 0.139631 3.573311084e-43
0.314876 0.253435 0.154463 3.573311084e-43
0.327493 0.258057 0.142540 3.573311084e-43
0.324345 0.269602 0.179319 3.573311084e-43
0.337486 0.285358 0.155639 3.573311084e-43
0.336677 0.283545 0.147307 3.573311084e-43
0.346057 0.286490 0.154592 3.573311084e-43
0.377251 0.202241 0.197611 3.573311084e-43
0.354458 0.158856 0.163750 3.573311084e-43
0.360828 0.217633 0.144882 3.573311084e-43
0.333916 0.180209 0.190980 3.573311084e-43
0.293907 0.198434 0.155823 3.573311084e-43
0.299739 0.198650 0.146889 3.573311084e-43
0.328468 0.226165 0.168772 3.573311084e-43
0.303298 0.223146 0.158522 3.573311084e-43
0.322016 0.226561 0.148388 3.573311084e-43
0.318780 0.235286 0.175162 3.573311084e-43
0.326342 0.232527 0.169069 3.573311084e-43
0.319250 0.239228 0.148082 3.573311084e-43
0.320766 0.245126 0.163482 3.573311084e-43
0.376892 0.151469 0.148315 3.573311084e-43
0.354092 0.238165 0.146756 3.573311084e-43
0.332249 0.192954 0.142476 3.573311084e-43
0.395871 0.171462 0.168418 3.573311084e-43
0.408827 0.161360 0.183762 3.573311084e-43
0.318012 0.234408 0.148936 3.573311084e-43
0.331550 0.176468 0.192624 3.573311084e-43
0.352076 0.283557 0.165214 3.573311084e-43
0.358297 0.164752 0.166389 3.573311084e-43
0.396081 0.253802 0.194091 3.573311084e-43
0.350075 0.295616 0.170413 3.573311084e-43
0.407793 0.175412 0.185544 3.573311084e-43
0.370766 0.176267 0.127159 3.573311084e-43
0.398108 0.231397 0.181543 3.573311084e-43
0.349298 0.259813 0.156123 3.573311084e-43
0.339032 0.275332 0.145409 3.573311084e-43
0.328030 0.251752 0.138322 3.573311084e-43
0.335894 0.279746 0.135586 3.573311084e-43
0.331057 0.258989 0.142559 3.573311084e-43
0.371021 0.235526 0.239506 3.573311084e-43
0.360685 0.288989 0.177734 3.573311084e-43
0.372509 0.156506 0.141077 3.573311084e-43
0.397550 0.278051 0.195041 3.573311084e-43
0.319434 0.212001 0.155097 3.573311084e-43
0.305490 0.223933 0.147058 3.573311084e-43
0.323881 0.225356 0.156371 3.573311084e-43
0.323692 0.222888 0.148749 3.573311084e-43
0.333435 0.235056 0.147328 3.573311084e-43
0.329195 0.238660 0.148706 3.573311084e-43
0.319451 0.227813 0.161126 3.573311084e-43
0.333799 0.288606 0.152560 3.573311084e-43
0.332905 0.293289 0.156416 3.573311084e-43
0.311718 0.209360 0.157320 3.573311084e-43
0.364994 0.222779 0.212207 3.573311084e-43
0.425221 0.206481 0.160898 3.573311084e-43
0.321083 0.164874 0.161595 3.573311084e-43
0.345153 0.179655 0.159312 3.573311084e-43
0.374146 0.154831 0.176980 3.573311084e-43
0.382002 0.255622 0.177704 3.573311084e-43
0.336763 0.288991 0.146091 3.573311084e-43
0.409181 0.154805 0.187473 3.573311084e-43
0.362721 0.207728 0.198448 3.573311084e-43
0.366896 0.203109 0.144899 3.573311084e-43
0.304177 0.200633 0.152119 3.573311084e-43
0.332262 0.219808 0.166578 3.573311084e-43
0.348882 0.304087 0.150317 3.573311084e-43
0.394409 0.270772 0.194543 3.573311084e-43
0.395111 0.272346 0.168658 3.573311084e-43
0.342962 0.251316 0.147643 3.573311084e-43
0.380935 0.239546 0.199478 3.573311084e-43
0.316953 0.191796 0.129485 3.573311084e-43
0.305807 0.207162 0.149937 3.573311084e-43
0.328120 0.199997 0.144581 3.573311084e-43
0.326859 0.212394 0.167788 3.573311084e-43
0.312733 0.228152 0.161075 3.573311084e-43
0.323296 0.238812 0.151668 3.573311084e-43
0.329051 0.228166 0.149406 3.573311084e-43
0.330885 0.226036 0.152648 3.573311084e-43
0.331660 0.239835 0.155898 3.573311084e-43
0.326929 0.233925 0.163200 3.573311084e-43
0.343361 0.266162 0.146474 3.573311084e-43
0.333200 0.260229 0.155670 3.573311084e-43
0.331288 0.267204 0.146753 3.573311084e-43
0.325383 0.256157 0.160414 3.573311084e-43
0.333308 0.270176 0.148820 3.573311084e-43
0.374911 0.291204 0.148792 3.573311084e-43
0.415738 0.166931 0.202152 3.573311084e-43
0.428995 0.214975 0.173716 3.573311084e-43
0.394001 0.174957 0.152104 3.573311084e-43
0.329307 0.176381 0.162473 3.573311084e-43
0.422327 0.160215 0.217086 3.573311084e-43
0.356330 0.206008 0.201366 3.573311084e-43
0.324374 0.207915 0.152689 3.573311084e-43
0.372315 0.222724 0.175749 3.573311084e-43
0.343442 0.250926 0.149113 3.573311084e-43
0.334103 0.258985 0.139589 3.573311084e-43
0.346114 0.261140 0.146160 3.573311084e-43
0.343848 0.277731 0.166614 3.573311084e-43
0.339863 0.184366 0.161812 3.573311084e-43
0.311531 0.196150 0.172986 3.573311084e-43
0.383038 0.281836 0.210311 3.573311084e-43
0.358674 0.286905 0.163303 3.573311084e-43
0.366463 0.203045 0.138896 3.573311084e-43
0.341755 0.161510 0.147658 3.573311084e-43
0.391517 0.153466 0.190557 3.573311084e-43
0.339354 0.197635 0.213941 3.573311084e-43
0.376637 0.216755 0.155377 3.573311084e-43
0.339147 0.218558 0.160926 3.573311084e-43
0.322000 0.200447 0.148343 3.573311084e-43
0.324929 0.219559 0.153773 3.573311084e-43
0.319248 0.232110 0.162476 3.573311084e-43
0.330041 0.234114 0.141182 3.573311084e-43
0.327694 0.242159 0.156508 3.573311084e-43
0.345585 0.231473 0.141004 3.573311084e-43
0.346339 0.251646 0.135782 3.573311084e-43
0.343261 0.244785 0.164208 3.573311084e-43
0.346185 0.261943 0.154035 3.573311084e-43
0.366664 0.272052 0.157710 3.573311084e-43
0.334519 0.284478 0.146125 3.573311084e-43
0.359458 0.302086 0.160430 3.573311084e-43
0.378121 0.191454 0.172413 3.573311084e-43
0.394798 0.165376 0.194737 3.573311084e-43
0.354241 0.177580 0.140120 3.573311084e-43
0.417938 0.155542 0.212084 3.573311084e-43
0.399015 0.148874 0.198146 3.573311084e-43
0.314340 0.212805 0.182088 3.573311084e-43
0.377164 0.278374 0.182061 3.573311084e-43
0.361742 0.212218 0.208344 3.573311084e-43
0.313807 0.209962 0.135647 3.573311084e-43
0.330708 0.207100 0.151340 3.573311084e-43
0.346374 0.220418 0.160289 3.573311084e-43
0.343766 0.225188 0.163030 3.573311084e-43
0.350027 0.266626 0.148077 3.573311084e-43
0.388781 0.179478 0.177951 3.573311084e-43
0.338015 0.190983 0.188182 3.573311084e-43
0.409276 0.200391 0.176933 3.573311084e-43
0.313775 0.195126 0.129014 3.573311084e-43
0.329211 0.199569 0.145540 3.573311084e-43
0.341846 0.165872 0.153286 3.573311084e-43
0.348996 0.235082 0.148626 3.573311084e-43
0.329604 0.254540 0.148351 3.573311084e-43
0.353374 0.238661 0.157019 3.573311084e-43
0.353733 0.278711 0.158607 3.573311084e-43
0.354597 0.258885 0.152455 3.573311084e-43
0.351860 0.270334 0.157279 3.573311084e-43
0.367925 0.267463 0.165970 3.573311084e-43
0.366039 0.269944 0.150188 3.573311084e-43
0.318526 0.201078 0.154374 3.573311084e-43
0.326659 0.197905 0.153237 3.573311084e-43
0.336297 0.205080 0.146730 3.573311084e-43
0.330462 0.211179 0.146850 3.573311084e-43
0.346255 0.220823 0.149682 3.573311084e-43
0.327356 0.236618 0.143785 3.573311084e-43
0.346803 0.232091 0.165172 3.573311084e-43
0.350502 0.238931 0.152839 3.573311084e-43
0.363664 0.293537 0.150152 3.573311084e-43
0.380716 0.206390 0.165645 3.573311084e-43
0.354146 0.277556 0.174390 3.573311084e-43
0.388343 0.294618 0.192511 3.573311084e-43
0.340407 0.191866 0.153776 3.573311084e-43
0.337742 0.248816 0.159357 3.573311084e-43
0.341810 0.265240 0.158506 3.573311084e-43
0.345574 0.281704 0.142569 3.573311084e-43
0.352175 0.279298 0.171643 3.573311084e-43
0.367721 0.269011 0.153961 3.573311084e-43
0.360384 0.276976 0.161113 3.573311084e-43
0.414160 0.205236 0.156903 3.573311084e-43
0.381072 0.188356 0.178148 3.573311084e-43
0.352489 0.214997 0.195694 3.573311084e-43
0.445029 0.223050 0.176661 3.573311084e-43
0.384125 0.259552 0.201522 3.573311084e-43
0.375131 0.182288 0.173138 3.573311084e-43
0.420306 0.210476 0.176150 3.573311084e-43
0.365770 0.189863 0.183095 3.573311084e-43
0.407000 0.188435 0.183133 3.573311084e-43
0.349608 0.191863 0.147553 3.573311084e-43
0.338239 0.195686 0.122553 3.573311084e-43
0.340316 0.194826 0.144279 3.573311084e-43
0.337552 0.211227 0.160063 3.573311084e-43
0.330043 0.219840 0.159866 3.573311084e-43
0.356699 0.236113 0.169467 3.573311084e-43
0.340457 0.238312 0.146613 3.573311084e-43
0.357017 0.266405 0.163062 3.573311084e-43
0.357608 0.252258 0.153122 3.573311084e-43
0.380231 0.287343 0.166789 3.573311084e-43
0.380311 0.287435 0.217628 3.573311084e-43
0.325947 0.193546 0.143743 3.573311084e-43
0.386979 0.203834 0.171443 3.573311084e-43
0.345766 0.201830 0.200443 3.573311084e-43
0.348496 0.160081 0.122475 3.573311084e-43
0.345440 0.222942 0.202940 3.573311084e-43
0.357156 0.189044 0.194632 3.573311084e-43
0.282999 0.262781 0.168493 3.573311084e-43
0.306399 0.261461 0.154759 3.573311084e-43
0.362737 0.170219 0.182684 3.573311084e-43
0.418871 0.210130 0.182061 3.573311084e-43
0.378504 0.274726 0.149337 3.573311084e-43
0.427939 0.211596 0.179678 3.573311084e-43
0.392032 0.190481 0.161095 3.573311084e-43
0.326332 0.311068 0.180850 3.573311084e-43
0.353156 0.278877 0.174441 3.573311084e-43
0.349949 0.185068 0.188000 3.573311084e-43
0.268936 0.239390 0.172857 3.573311084e-43
0.292088 0.275524 0.165527 3.573311084e-43
0.288173 0.284432 0.178784 3.573311084e-43
0.345032 0.204259 0.141006 3.573311084e-43
0.351222 0.185094 0.142238 3.573311084e-43
0.316052 0.305793 0.189778 3.573311084e-43
0.357615 0.217810 0.154191 3.573311084e-43
0.437623 0.205452 0.180099 3.573311084e-43
0.386494 0.168620 0.186836 3.573311084e-43
0.352352 0.292522 0.167311 3.573311084e-43
0.389238 0.198831 0.162842 3.573311084e-43
0.288389 0.278492 0.185255 3.573311084e-43
0.336523 0.201794 0.145969 3.573311084e-43
0.347293 0.196975 0.134829 3.573311084e-43
0.273499 0.243343 0.185695 3.573311084e-43
0.377000 0.255398 0.221727 3.573311084e-43
0.428145 0.216096 0.173042 3.573311084e-43
0.321172 0.300514 0.213584 3.573311084e-43
0.344114 0.184596 0.192548 3.573311084e-43
0.367242 0.289234 0.165406 3.573311084e-43
0.385823 0.205672 0.116319 3.573311084e-43
0.416329 0.224255 0.183405 3.573311084e-43
0.412353 0.223719 0.182259 3.573311084e-43
0.311248 0.286409 0.172137 3.573311084e-43
0.312615 0.297346 0.182751 3.573311084e-43
0.337980 0.282504 0.179383 3.573311084e-43
0.327474 0.306903 0.171344 3.573311084e-43
0.358589 0.306928 0.161341 3.573311084e-43
0.323178 0.305905 0.192118 3.573311084e-43
0.443779 0.199210 0.177997 3.573311084e-43
0.337730 0.184064 0.140130 3.573311084e-43
0.323120 0.209066 0.203299 3.573311084e-43
0.360527 0.183181 0.129413 3.573311084e-43
0.381411 0.212532 0.177823 3.573311084e-43
0.427222 0.205145 0.160011 3.573311084e-43
0.425661 0.210048 0.164215 3.573311084e-43
0.358950 0.199666 0.145082 3.573311084e-43
0.340275 0.200866 0.134207 3.573311084e-43
0.361133 0.183663 0.193854 3.573311084e-43
0.386950 0.190876 0.158593 3.573311084e-43
0.377694 0.206377 0.145896 3.573311084e-43
0.371637 0.290134 0.231102 3.573311084e-43
0.330796 0.305309 0.196064 3.573311084e-43
0.344954 0.198496 0.137642 3.573311084e-43
0.360898 0.192524 0.207737 3.573311084e-43
0.317917 0.293065 0.206407 3.573311084e-43
0.296134 0.181470 0.163360 3.573311084e-43
0.353548 0.199792 0.140833 3.573311084e-43
0.398826 0.206617 0.153723 3.573311084e-43
0.396010 0.210424 0.160794 3.573311084e-43
0.348018 0.213526 0.149921 3.573311084e-43
0.354412 0.196422 0.123790 3.573311084e-43
0.314345 0.330927 0.215607 3.573311084e-43
0.313020 0.314738 0.210378 3.573311084e-43
0.417029 0.205466 0.185199 3.573311084e-43
0.437806 0.214099 0.175949 3.573311084e-43
0.375063 0.298477 0.168470 3.573311084e-43
0.345422 0.209817 0.134465 3.573311084e-43
0.330958 0.324323 0.195167 3.573311084e-43
0.326552 0.329103 0.211164 3.573311084e-43
0.336888 0.323962 0.199139 3.573311084e-43
0.435791 0.228204 0.165016 3.573311084e-43
0.367570 0.304891 0.175224 3.573311084e-43
0.359512 0.200592 0.134651 3.573311084e-43
0.363425 0.203121 0.130251 3.573311084e-43
0.408144 0.226527 0.166981 3.573311084e-43
0.411730 0.222324 0.178720 3.573311084e-43
0.314185 0.292854 0.178179 3.573311084e-43
0.355718 0.213193 0.128129 3.573311084e-43
0.340918 0.333528 0.202459 3.573311084e-43
0.394496 0.262071 0.205552 3.573311084e-43
0.411340 0.220734 0.168677 3.573311084e-43
0.407629 0.201820 0.157771 3.573311084e-43
0.417463 0.213857 0.144250 3.573311084e-43
0.406457 0.221739 0.152894 3.573311084e-43
0.406692 0.208111 0.165855 3.573311084e-43
0.328711 0.287346 0.163058 3.573311084e-43
0.327654 0.306170 0.179077 3.573311084e-43
0.335545 0.304489 0.180023 3.573311084e-43
0.331758 0.309929 0.181397 3.573311084e-43
0.366644 0.286747 0.151016 3.573311084e-43
0.351249 0.317895 0.212492 3.573311084e-43
0.334494 0.205819 0.126297 3.573311084e-43
0.405292 0.214552 0.170554 3.573311084e-43
0.368806 0.264744 0.220167 3.573311084e-43
0.363578 0.207050 0.144334 3.573311084e-43
0.379718 0.202869 0.146707 3.573311084e-43
0.392093 0.194855 0.170962 3.573311084e-43
0.383753 0.189732 0.191450 3.573311084e-43
0.412180 0.207063 0.148073 3.573311084e-43
0.375911 0.293323 0.215831 3.573311084e-43
0.313505 0.293437 0.182952 3.573311084e-43
0.326739 0.319496 0.206119 3.573311084e-43
0.311305 0.309827 0.183826 3.573311084e-43
0.330815 0.336203 0.207712 3.573311084e-43
0.308263 0.203447 0.163538 3.573311084e-43
0.407655 0.153435 0.201494 3.573311084e-43
0.321435 0.294812 0.174540 3.573311084e-43
0.324361 0.293360 0.183243 3.573311084e-43
0.314781 0.302620 0.175175 3.573311084e-43
0.319860 0.316475 0.184217 3.573311084e-43
0.325001 0.307960 0.186897 3.573311084e-43
0.355575 0.305068 0.156346 3.573311084e-43
0.338787 0.179642 0.148872 3.573311084e-43
0.340772 0.329607 0.180309 3.573311084e-43
0.349475 0.289604 0.164176 3.573311084e-43
0.423700 0.201692 0.164176 3.573311084e-43
0.373900 0.181144 0.150434 3.573311084e-43
0.370688 0.204008 0.155539 3.573311084e-43
0.372089 0.200026 0.119302 3.573311084e-43
0.394931 0.215418 0.173872 3.573311084e-43
0.337182 0.203213 0.129388 3.573311084e-43
0.359580 0.284774 0.157821 3.573311084e-43
0.409908 0.163265 0.182768 3.573311084e-43
0.348117 0.326177 0.192265 3.573311084e-43
0.388498 0.184708 0.179272 3.573311084e-43
0.328347 0.290870 0.142897 3.573311084e-43
0.324666 0.292577 0.184656 3.573311084e-43
0.327547 0.297174 0.172341 3.573311084e-43
0.341796 0.305413 0.186561 3.573311084e-43
0.334817 0.307154 0.189775 3.573311084e-43
0.344398 0.299934 0.187068 3.573311084e-43
0.351873 0.318626 0.196416 3.573311084e-43
0.343962 0.321777 0.212410 3.573311084e-43
0.430177 0.230649 0.164730 3.573311084e-43
0.367502 0.204881 0.127738 3.573311084e-43
0.315234 0.297545 0.157738 3.573311084e-43
0.406397 0.200860 0.159848 3.573311084e-43
0.357748 0.291911 0.147010 3.573311084e-43
0.392753 0.214597 0.177968 3.573311084e-43
0.327345 0.288661 0.164905 3.573311084e-43
0.322378 0.283088 0.171258 3.573311084e-43
0.347998 0.289939 0.174724 3.573311084e-43
0.319859 0.305664 0.187387 3.573311084e-43
0.324392 0.302953 0.171027 3.573311084e-43
0.350036 0.309720 0.168259 3.573311084e-43
0.336549 0.310777 0.174631 3.573311084e-43
0.348312 0.328088 0.203354 3.573311084e-43
0.295852 0.220921 0.180864 3.573311084e-43
0.346524 0.173628 0.165733 3.573311084e-43
0.371430 0.291696 0.224556 3.573311084e-43
0.355574 0.172401 0.173241 3.573311084e-43
0.404575 0.194824 0.146609 3.573311084e-43
0.403760 0.225127 0.174430 3.573311084e-43
0.344638 0.212950 0.156759 3.573311084e-43
0.321107 0.304070 0.163780 3.573311084e-43
0.393450 0.163586 0.167942 3.573311084e-43
0.424613 0.144409 0.207182 3.573311084e-43
0.312921 0.196727 0.177860 3.573311084e-43
0.356810 0.221827 0.203000 3.573311084e-43
0.311896 0.198091 0.173036 3.573311084e-43
0.397614 0.274814 0.206408 3.573311084e-43
0.340688 0.288267 0.169983 3.573311084e-43
0.331097 0.289799 0.164775 3.573311084e-43
0.326093 0.313319 0.169694 3.573311084e-43
0.336311 0.318088 0.169396 3.573311084e-43
0.340791 0.326418 0.179730 3.573311084e-43
0.345281 0.298387 0.166057 3.573311084e-43
0.348669 0.296008 0.189118 3.573311084e-43
0.354515 0.309626 0.208571 3.573311084e-43
0.389154 0.206986 0.202879 3.573311084e-43
0.347887 0.314447 0.179575 3.573311084e-43
0.365719 0.199044 0.164208 3.573311084e-43
0.398025 0.240662 0.192194 3.573311084e-43
0.405393 0.196692 0.172402 3.573311084e-43
0.335414 0.283554 0.171292 3.573311084e-43
0.369182 0.192186 0.152324 3.573311084e-43
0.378569 0.234043 0.200557 3.573311084e-43
0.350648 0.304734 0.200548 3.573311084e-43
0.363563 0.204020 0.145448 3.573311084e-43
0.342658 0.302090 0.158915 3.573311084e-43
0.348991 0.301999 0.158732 3.573311084e-43
0.336892 0.307198 0.165632 3.573311084e-43
0.352772 0.321458 0.181389 3.573311084e-43
0.373979 0.164905 0.171154 3.573311084e-43
0.294581 0.217538 0.191107 3.573311084e-43
0.352534 0.321600 0.191796 3.573311084e-43
0.345974 0.316918 0.180162 3.573311084e-43
0.382521 0.289160 0.190477 3.573311084e-43
0.360519 0.301597 0.181825 3.573311084e-43
0.330201 0.175650 0.136657 3.573311084e-43
0.329921 0.178679 0.191360 3.573311084e-43
0.422667 0.202191 0.174074 3.573311084e-43
0.314167 0.196272 0.180341 3.573311084e-43
0.336115 0.307767 0.168903 3.573311084e-43
0.344189 0.286909 0.174058 3.573311084e-43
0.362291 0.284045 0.158512 3.573311084e-43
0.359800 0.295301 0.167800 3.573311084e-43
0.356437 0.301016 0.188557 3.573311084e-43
0.371922 0.310229 0.185311 3.573311084e-43
0.384286 0.248841 0.224765 3.573311084e-43
0.395079 0.168161 0.179893 3.573311084e-43
0.373128 0.175052 0.171981 3.573311084e-43
0.390369 0.211247 0.196989 3.573311084e-43
0.351322 0.174161 0.172345 3.573311084e-43
0.439305 0.222784 0.192104 3.573311084e-43
0.402718 0.215373 0.182145 3.573311084e-43
0.418544 0.231904 0.214350 3.573311084e-43
0.434090 0.216228 0.195424 3.573311084e-43
0.374233 0.175475 0.143916 3.573311084e-43
0.307490 0.278040 0.223376 3.573311084e-43
0.325245 0.287180 0.236607 3.573311084e-43
0.327376 0.289978 0.231651 3.573311084e-43
0.306797 0.272375 0.237074 3.573311084e-43
0.297758 0.288248 0.195182 3.573311084e-43
0.337926 0.304474 0.216365 3.573311084e-43
0.324022 0.305784 0.208883 3.573311084e-43
0.313592 0.302398 0.229884 3.573311084e-43
0.322390 0.274770 0.231307 3.573311084e-43
0.339581 0.288434 0.245735 3.573311084e-43
0.385877 0.265173 0.193894 3.573311084e-43
0.309074 0.308618 0.220409 3.573311084e-43
0.325806 0.308585 0.221773 3.573311084e-43
0.316833 0.323952 0.230901 3.573311084e-43
0.369521 0.197457 0.159961 3.573311084e-43
0.310642 0.301280 0.223457 3.573311084e-43
0.334908 0.286338 0.235670 3.573311084e-43
0.339994 0.278290 0.243133 3.573311084e-43
0.336705 0.186230 0.134695 3.573311084e-43
0.378981 0.222793 0.197856 3.573311084e-43
0.340829 0.317516 0.210152 3.573311084e-43
0.329076 0.323733 0.202946 3.573311084e-43
0.328312 0.311901 0.204243 3.573311084e-43
0.321849 0.331672 0.207212 3.573311084e-43
0.366142 0.276574 0.215696 3.573311084e-43
0.317929 0.301817 0.230127 3.573311084e-43
0.333774 0.176451 0.169727 3.573311084e-43
0.418864 0.156676 0.225733 3.573311084e-43
0.326989 0.200430 0.157396 3.573311084e-43
0.338458 0.330107 0.219248 3.573311084e-43
0.330238 0.309486 0.221437 3.573311084e-43
0.377064 0.218853 0.180037 3.573311084e-43
0.335388 0.283625 0.242666 3.573311084e-43
0.354369 0.243865 0.235402 3.573311084e-43
0.394780 0.194638 0.172229 3.573311084e-43
0.381312 0.169794 0.175675 3.573311084e-43
0.333833 0.310393 0.233273 3.573311084e-43
0.331430 0.291516 0.235074 3.573311084e-43
0.340809 0.278367 0.258759 3.573311084e-43
0.301492 0.227381 0.247405 3.573311084e-43
0.298148 0.204487 0.172153 3.573311084e-43
0.368619 0.187549 0.171797 3.573311084e-43
0.382017 0.173999 0.163510 3.573311084e-43
0.329402 0.328476 0.206899 3.573311084e-43
0.339415 0.294198 0.244308 3.573311084e-43
0.319331 0.307023 0.256714 3.573311084e-43
0.374879 0.285970 0.205009 3.573311084e-43
0.366984 0.317687 0.210994 3.573311084e-43
0.340497 0.308218 0.221071 3.573311084e-43
0.307805 0.220399 0.154701 3.573311084e-43
0.400002 0.155128 0.207178 3.573311084e-43
0.381755 0.204688 0.167468 3.573311084e-43
0.371365 0.210612 0.200531 3.573311084e-43
0.405848 0.178560 0.211561 3.573311084e-43
0.411666 0.212062 0.175579 3.573311084e-43
0.326517 0.323827 0.204859 3.573311084e-43
0.348065 0.319545 0.223467 3.573311084e-43
0.358517 0.305737 0.219207 3.573311084e-43
0.347919 0.321475 0.219546 3.573311084e-43
0.350566 0.317159 0.226859 3.573311084e-43
0.334866 0.296775 0.219502 3.573311084e-43
0.396519 0.265982 0.197013 3.573311084e-43
0.355085 0.238921 0.208621 3.573311084e-43
0.410727 0.169363 0.199885 3.573311084e-43
0.335834 0.319811 0.219251 3.573311084e-43
0.330753 0.302779 0.245574 3.573311084e-43
0.361684 0.283512 0.241798 3.573311084e-43
0.354607 0.285832 0.233841 3.573311084e-43
0.378693 0.228399 0.206313 3.573311084e-43
0.385196 0.220784 0.204897 3.573311084e-43
0.369470 0.167465 0.178580 3.573311084e-43
0.387834 0.282688 0.192566 3.573311084e-43
0.303752 0.209754 0.231886 3.573311084e-43
0.341493 0.313727 0.236393 3.573311084e-43
0.400948 0.285297 0.203273 3.573311084e-43
0.385045 0.207692 0.182860 3.573311084e-43
0.378336 0.225952 0.213130 3.573311084e-43
0.331498 0.263447 0.241250 3.573311084e-43
0.362190 0.191678 0.204754 3.573311084e-43
0.400366 0.272688 0.179621 3.573311084e-43
0.303741 0.197834 0.229441 3.573311084e-43
0.373933 0.242994 0.200638 3.573311084e-43
0.341289 0.305069 0.227420 3.573311084e-43
0.335267 0.289556 0.245004 3.573311084e-43
0.368442 0.242971 0.190583 3.573311084e-43
0.395734 0.273996 0.223219 3.573311084e-43
0.352724 0.300020 0.228554 3.573311084e-43
0.359666 0.249293 0.215790 3.573311084e-43
0.296277 0.200825 0.188251 3.573311084e-43
0.354792 0.343947 0.203126 3.573311084e-43
0.354740 0.315773 0.206501 3.573311084e-43
0.351667 0.320003 0.207603 3.573311084e-43
0.369357 0.219743 0.177885 3.573311084e-43
0.385161 0.280823 0.207860 3.573311084e-43
0.337719 0.301034 0.224729 3.573311084e-43
0.381769 0.287686 0.234170 3.573311084e-43
0.364755 0.208325 0.200080 3.573311084e-43
0.315313 0.194992 0.171123 3.573311084e-43
0.331058 0.249441 0.240890 3.573311084e-43
0.360650 0.295171 0.217962 3.573311084e-43
0.354411 0.296957 0.232564 3.573311084e-43
0.330898 0.268673 0.238241 3.573311084e-43
0.386450 0.225361 0.231458 3.573311084e-43
0.316872 0.181263 0.111806 3.573311084e-43
0.275588 0.254875 0.192055 3.573311084e-43
0.360293 0.186795 0.192551 3.573311084e-43
0.355835 0.286658 0.243590 3.573311084e-43
0.378350 0.259065 0.206668 3.573311084e-43
0.373346 0.232549 0.194275 3.573311084e-43
0.331840 0.198899 0.194989 3.573311084e-43
0.316924 0.168924 0.207960 3.573311084e-43
0.333462 0.173898 0.158675 3.573311084e-43
0.353885 0.165289 0.162320 3.573311084e-43
0.346116 0.312210 0.216574 3.573311084e-43
0.345001 0.296237 0.229897 3.573311084e-43
0.383352 0.267824 0.219161 3.573311084e-43
0.423735 0.140033 0.203378 3.573311084e-43
0.386804 0.251344 0.198952 3.573311084e-43
0.300025 0.215877 0.158921 3.573311084e-43
0.367340 0.323899 0.194749 3.573311084e-43
0.352754 0.322323 0.211515 3.573311084e-43
0.364140 0.315707 0.214763 3.573311084e-43
0.352260 0.312245 0.208626 3.573311084e-43
0.336420 0.181935 0.203764 3.573311084e-43
0.390939 0.197546 0.174324 3.573311084e-43
0.359427 0.296156 0.241852 3.573311084e-43
0.345797 0.289840 0.226684 3.573311084e-43
0.406329 0.273654 0.207603 3.573311084e-43
0.364299 0.202476 0.200360 3.573311084e-43
0.352872 0.305397 0.223879 3.573311084e-43
0.272105 0.221795 0.166776 3.573311084e-43
0.301987 0.203182 0.171275 3.573311084e-43
0.305064 0.203059 0.206189 3.573311084e-43
0.365630 0.186005 0.172940 3.573311084e-43
0.357828 0.305335 0.221010 3.573311084e-43
0.332552 0.299424 0.232663 3.573311084e-43
0.354873 0.329308 0.225532 3.573311084e-43
0.295346 0.200643 0.171921 3.573311084e-43
0.373993 0.170015 0.160779 3.573311084e-43
0.345943 0.286038 0.238014 3.573311084e-43
0.362168 0.272819 0.233707 3.573311084e-43
0.368694 0.271160 0.212276 3.573311084e-43
0.368467 0.172672 0.178900 3.573311084e-43
0.389313 0.272032 0.209745 3.573311084e-43
0.386099 0.245719 0.191205 3.573311084e-43
0.278189 0.261295 0.185572 3.573311084e-43
0.368184 0.264544 0.210098 3.573311084e-43
0.364520 0.323056 0.213297 3.573311084e-43
0.354445 0.316049 0.209738 3.573311084e-43
0.358244 0.308465 0.216479 3.573311084e-43
0.351257 0.300441 0.234759 3.573311084e-43
0.427096 0.157070 0.193603 3.573311084e-43
0.397390 0.133458 0.217710 3.573311084e-43
0.359227 0.181080 0.159640 3.573311084e-43
0.396190 0.164787 0.172552 3.573311084e-43
0.309702 0.207320 0.161961 3.573311084e-43
0.394035 0.160351 0.196506 3.573311084e-43
0.361668 0.302411 0.217251 3.573311084e-43
0.359078 0.297908 0.217691 3.573311084e-43
0.373208 0.289320 0.229646 3.573311084e-43
0.374544 0.210599 0.177445 3.573311084e-43
0.356772 0.286822 0.224635 3.573311084e-43
0.362581 0.288680 0.219945 3.573311084e-43
0.356242 0.288301 0.231502 3.573311084e-43
0.348485 0.280517 0.245411 3.573311084e-43
0.368319 0.253371 0.219293 3.573311084e-43
0.309877 0.259516 0.256519 3.573311084e-43
0.333290 0.179126 0.154661 3.573311084e-43
0.398845 0.251065 0.193853 3.573311084e-43
0.328657 0.183241 0.145220 3.573311084e-43
0.400129 0.154164 0.194789 3.573311084e-43
0.365665 0.263245 0.216319 3.573311084e-43
0.343467 0.176478 0.132940 3.573311084e-43
0.359539 0.304677 0.213438 3.573311084e-43
0.309745 0.211445 0.200181 3.573311084e-43
0.381911 0.224201 0.184545 3.573311084e-43
0.354846 0.314652 0.205414 3.573311084e-43
0.346778 0.291318 0.213432 3.573311084e-43
0.365082 0.293495 0.207735 3.573311084e-43
0.374909 0.286921 0.213443 3.573311084e-43
0.375057 0.287962 0.219663 3.573311084e-43
0.370892 0.279102 0.236022 3.573311084e-43
0.373565 0.274606 0.235559 3.573311084e-43
0.294316 0.214400 0.181632 3.573311084e-43
0.363004 0.241408 0.226331 3.573311084e-43
0.364557 0.212826 0.211826 3.573311084e-43
0.395991 0.161753 0.197252 3.573311084e-43
0.420859 0.203167 0.173736 3.573311084e-43
0.380534 0.252175 0.237520 3.573311084e-43
0.372258 0.159165 0.145952 3.573311084e-43
0.338781 0.187570 0.191497 3.573311084e-43
0.393942 0.253145 0.191071 3.573311084e-43
0.413055 0.142496 0.166231 3.573311084e-43
0.356509 0.299511 0.192694 3.573311084e-43
0.365332 0.309583 0.201954 3.573311084e-43
0.374625 0.309749 0.200108 3.573311084e-43
0.360327 0.271276 0.223289 3.573311084e-43
0.387555 0.190589 0.161097 3.573311084e-43
0.324378 0.226553 0.227147 3.573311084e-43
0.382096 0.156934 0.168821 3.573311084e-43
0.427101 0.153524 0.195216 3.573311084e-43
0.439552 0.148174 0.199189 3.573311084e-43
0.428029 0.167318 0.196720 3.573311084e-43
0.343382 0.237515 0.158476 3.573311084e-43
0.420738 0.142719 0.199912 3.573311084e-43
0.364996 0.166016 0.148799 3.573311084e-43
0.370406 0.170906 0.169010 3.573311084e-43
0.336979 0.161614 0.185941 3.573311084e-43
0.409128 0.170789 0.178296 3.573311084e-43
0.417234 0.149419 0.180809 3.573311084e-43
0.334190 0.161047 0.158287 3.573311084e-43
0.380116 0.274946 0.181064 3.573311084e-43
0.379094 0.170225 0.161865 3.573311084e-43
0.366967 0.318038 0.204636 3.573311084e-43
0.387528 0.283387 0.199251 3.573311084e-43
0.401108 0.287861 0.183111 3.573311084e-43
0.396351 0.182090 0.170684 3.573311084e-43
0.396682 0.289493 0.189847 3.573311084e-43
0.405114 0.164782 0.192975 3.573311084e-43
0.360621 0.295282 0.210481 3.573311084e-43
0.357618 0.300819 0.211115 3.573311084e-43
0.393350 0.263209 0.171581 3.573311084e-43
0.406288 0.153154 0.169716 3.573311084e-43
0.423297 0.166065 0.182970 3.573311084e-43
0.385917 0.155316 0.160930 3.573311084e-43
0.356870 0.313986 0.195760 3.573311084e-43
0.377600 0.284680 0.191783 3.573311084e-43
0.394488 0.260453 0.185359 3.573311084e-43
0.383421 0.207199 0.165047 3.573311084e-43
0.401755 0.150732 0.183974 3.573311084e-43
0.395630 0.297934 0.195345 3.573311084e-43
0.382018 0.248660 0.179857 3.573311084e-43
0.367022 0.165164 0.149948 3.573311084e-43
0.405068 0.272869 0.182407 3.573311084e-43
0.395585 0.257819 0.181293 3.573311084e-43
0.314741 0.166550 0.151147 3.573311084e-43
0.423500 0.175941 0.186110 3.573311084e-43
0.399846 0.165461 0.172308 3.573311084e-43
0.401048 0.164299 0.173548 3.573311084e-43
0.382009 0.274806 0.242465 3.573311084e-43
0.395186 0.267281 0.170604 3.573311084e-43
0.393337 0.244344 0.159651 3.573311084e-43
0.413325 0.156813 0.176825 3.573311084e-43
0.410049 0.162605 0.170191 3.573311084e-43
0.351823 0.306455 0.211643 3.573311084e-43
0.395019 0.266393 0.181534 3.573311084e-43
0.340139 0.162777 0.198774 3.573311084e-43
0.310624 0.176000 0.162373 3.573311084e-43
0.380226 0.291565 0.179252 3.573311084e-43
0.387958 0.290144 0.161825 3.573311084e-43
0.383169 0.261581 0.172630 3.573311084e-43
0.315624 0.253468 0.163368 3.573311084e-43
0.404481 0.171961 0.165211 3.573311084e-43
0.382777 0.158284 0.148982 3.573311084e-43
0.279720 0.199318 0.207189 3.573311084e-43
0.280462 0.228473 0.201255 3.573311084e-43
0.271671 0.224898 0.199730 3.573311084e-43
0.267778 0.222893 0.198567 3.573311084e-43
0.269489 0.226620 0.184398 3.573311084e-43
0.267484 0.219585 0.202760 3.573311084e-43
0.332018 0.192803 0.161913 3.573311084e-43
0.374959 0.231726 0.219825 3.573311084e-43
0.286143 0.207125 0.206366 3.573311084e-43
0.296714 0.203729 0.207473 3.573311084e-43
0.282375 0.212638 0.190719 3.573311084e-43
0.303572 0.203146 0.164979 3.573311084e-43
0.316865 0.203500 0.160925 3.573311084e-43
0.281240 0.214842 0.197931 3.573311084e-43
0.275629 0.203844 0.198224 3.573311084e-43
0.284230 0.221791 0.164433 3.573311084e-43
0.270863 0.199223 0.178895 3.573311084e-43
0.300068 0.186393 0.168381 3.573311084e-43
0.338083 0.173376 0.120183 3.573311084e-43
0.313467 0.185907 0.164494 3.573311084e-43
0.345798 0.176132 0.130860 3.573311084e-43
0.369848 0.220181 0.189021 3.573311084e-43
0.288811 0.221106 0.203954 3.573311084e-43
0.305218 0.216972 0.190039 3.573311084e-43
0.281398 0.229615 0.202410 3.573311084e-43
0.352591 0.175825 0.137112 3.573311084e-43
0.300246 0.238637 0.179391 3.573311084e-43
0.318176 0.240481 0.152908 3.573311084e-43
0.383418 0.264205 0.224796 3.573311084e-43
0.282834 0.219000 0.162635 3.573311084e-43
0.339024 0.182774 0.143837 3.573311084e-43
0.373807 0.261677 0.223332 3.573311084e-43
0.313975 0.187559 0.170407 3.573311084e-43
0.277611 0.223925 0.195266 3.573311084e-43
0.349816 0.162540 0.154214 3.573311084e-43
0.288502 0.255364 0.182253 3.573311084e-43
0.295230 0.266032 0.172728 3.573311084e-43
0.318866 0.204050 0.164761 3.573311084e-43
0.291143 0.213156 0.202945 3.573311084e-43
0.295613 0.216644 0.191142 3.573311084e-43
0.301975 0.219621 0.195166 3.573311084e-43
0.288142 0.206672 0.204292 3.573311084e-43
0.289294 0.218923 0.200474 3.573311084e-43
0.348580 0.181556 0.134273 3.573311084e-43
0.323899 0.175078 0.165033 3.573311084e-43
0.326406 0.187464 0.158371 3.573311084e-43
0.321752 0.238371 0.149718 3.573311084e-43
0.342333 0.170729 0.134763 3.573311084e-43
0.286225 0.219317 0.195405 3.573311084e-43
0.296483 0.227499 0.211295 3.573311084e-43
0.315165 0.188040 0.178089 3.573311084e-43
0.401363 0.199471 0.154278 3.573311084e-43
0.295330 0.222062 0.182290 3.573311084e-43
0.300084 0.226533 0.207612 3.573311084e-43
0.367189 0.179315 0.127589 3.573311084e-43
0.309703 0.250177 0.159348 3.573311084e-43
0.341456 0.194059 0.137631 3.573311084e-43
0.332448 0.257174 0.152683 3.573311084e-43
0.319650 0.224280 0.186545 3.573311084e-43
0.380807 0.249751 0.241022 3.573311084e-43
0.304698 0.251582 0.180266 3.573311084e-43
0.289870 0.220190 0.191490 3.573311084e-43
0.310622 0.216858 0.191134 3.573311084e-43
0.299417 0.238906 0.178945 3.573311084e-43
0.298885 0.212967 0.169840 3.573311084e-43
0.306368 0.254348 0.158236 3.573311084e-43
0.359169 0.178215 0.178526 3.573311084e-43
0.325944 0.263982 0.168837 3.573311084e-43
0.373845 0.219094 0.204153 3.573311084e-43
0.308808 0.240317 0.162271 3.573311084e-43
0.324297 0.251164 0.179353 3.573311084e-43
0.306172 0.251123 0.170179 3.573311084e-43
0.416255 0.211025 0.181277 3.573311084e-43
0.410031 0.205424 0.156912 3.573311084e-43
0.387868 0.191334 0.158289 3.573311084e-43
0.376355 0.186690 0.186733 3.573311084e-43
0.303561 0.209002 0.169033 3.573311084e-43
0.369629 0.222387 0.213348 3.573311084e-43
0.351462 0.183944 0.209137 3.573311084e-43
0.393002 0.185949 0.169504 3.573311084e-43
0.312077 0.245396 0.175476 3.573311084e-43
0.317947 0.252922 0.148793 3.573311084e-43
0.388094 0.200524 0.188079 3.573311084e-43
0.367433 0.173422 0.171083 3.573311084e-43
0.370184 0.199983 0.191023 3.573311084e-43
0.361450 0.210133 0.183607 3.573311084e-43
0.430609 0.217878 0.182201 3.573311084e-43
0.297946 0.217112 0.177082 3.573311084e-43
0.302760 0.222667 0.243540 3.573311084e-43
0.296061 0.232175 0.237018 3.573311084e-43
0.307398 0.226933 0.236507 3.573311084e-43
0.291800 0.226555 0.239697 3.573311084e-43
0.310915 0.219958 0.225137 3.573311084e-43
0.319080 0.255744 0.241513 3.573311084e-43
0.364992 0.242963 0.216698 3.573311084e-43
0.272700 0.205064 0.227452 3.573311084e-43
0.335187 0.169880 0.141493 3.573311084e-43
0.298563 0.238540 0.233730 3.573311084e-43
0.369487 0.275093 0.213235 3.573311084e-43
0.424982 0.153615 0.217728 3.573311084e-43
0.334885 0.172361 0.148226 3.573311084e-43
0.277800 0.209368 0.220640 3.573311084e-43
0.393020 0.162510 0.206792 3.573311084e-43
0.296118 0.228224 0.243576 3.573311084e-43
0.294017 0.192123 0.208439 3.573311084e-43
0.275531 0.232622 0.188090 3.573311084e-43
0.364839 0.172030 0.176169 3.573311084e-43
0.295010 0.215982 0.241996 3.573311084e-43
0.289302 0.217785 0.199663 3.573311084e-43
0.300857 0.218633 0.229865 3.573311084e-43
0.323571 0.210338 0.227174 3.573311084e-43
0.308842 0.221657 0.226261 3.573311084e-43
0.292762 0.221016 0.205855 3.573311084e-43
0.281811 0.212374 0.180458 3.573311084e-43
0.291970 0.208330 0.181759 3.573311084e-43
0.275576 0.220172 0.180680 3.573311084e-43
0.307651 0.219425 0.229390 3.573311084e-43
0.308614 0.225213 0.232765 3.573311084e-43
0.366922 0.209590 0.198757 3.573311084e-43
0.295843 0.218409 0.205728 3.573311084e-43
0.379865 0.158616 0.140356 3.573311084e-43
0.318226 0.228778 0.234653 3.573311084e-43
0.403083 0.252673 0.200660 3.573311084e-43
0.365183 0.263671 0.209293 3.573311084e-43
0.301916 0.222644 0.217871 3.573311084e-43
0.297317 0.211571 0.213002 3.573311084e-43
0.384885 0.146544 0.176869 3.573311084e-43
0.428536 0.157191 0.191501 3.573311084e-43
0.298180 0.207240 0.186490 3.573311084e-43
0.285277 0.230950 0.190847 3.573311084e-43
0.382392 0.220241 0.183641 3.573311084e-43
0.307026 0.240776 0.226133 3.573311084e-43
0.390645 0.259529 0.233656 3.573311084e-43
0.386385 0.258778 0.234726 3.573311084e-43
0.404848 0.269918 0.225681 3.573311084e-43
0.324230 0.254525 0.216422 3.573311084e-43
0.316121 0.222368 0.218094 3.573311084e-43
0.326167 0.244149 0.220020 3.573311084e-43
0.381648 0.241555 0.206447 3.573311084e-43
0.308855 0.210074 0.215936 3.573311084e-43
0.298523 0.221825 0.218217 3.573311084e-43
0.316666 0.236242 0.231451 3.573311084e-43
0.319065 0.229590 0.239798 3.573311084e-43
0.392228 0.275391 0.211523 3.573311084e-43
0.335222 0.217788 0.238647 3.573311084e-43
0.358089 0.190912 0.186851 3.573311084e-43
0.373692 0.236754 0.208339 3.573311084e-43
0.359852 0.199742 0.199683 3.573311084e-43
0.304230 0.212596 0.226972 3.573311084e-43
0.313902 0.222450 0.214293 3.573311084e-43
0.305780 0.208680 0.189833 3.573311084e-43
0.317400 0.219649 0.215174 3.573311084e-43
0.388050 0.253466 0.196405 3.573311084e-43
0.383273 0.224529 0.209646 3.573311084e-43
0.327253 0.238465 0.213020 3.573311084e-43
0.335589 0.239267 0.256009 3.573311084e-43
0.339178 0.232764 0.218770 3.573311084e-43
0.323622 0.234881 0.216071 3.573311084e-43
0.394083 0.262639 0.193813 3.573311084e-43
0.311261 0.244582 0.239774 3.573311084e-43
0.324409 0.226541 0.216669 3.573311084e-43
0.313987 0.205689 0.214441 3.573311084e-43
0.313271 0.212566 0.185242 3.573311084e-43
0.322727 0.202266 0.198816 3.573311084e-43
0.309073 0.193691 0.181055 3.573311084e-43
0.414370 0.172217 0.204785 3.573311084e-43
0.345550 0.242551 0.223281 3.573311084e-43
0.327860 0.225394 0.238639 3.573311084e-43
0.331166 0.229947 0.223317 3.573311084e-43
0.336592 0.220262 0.233209 3.573311084e-43
0.330652 0.226620 0.222145 3.573311084e-43
0.308158 0.237062 0.228261 3.573311084e-43
0.319350 0.234721 0.251653 3.573311084e-43
0.294593 0.206433 0.195694 3.573311084e-43
0.382465 0.257102 0.198529 3.573311084e-43
0.315002 0.186208 0.193521 3.573311084e-43
0.306748 0.189137 0.202360 3.573311084e-43
0.328807 0.209589 0.220841 3.573311084e-43
0.301054 0.195364 0.202006 3.573311084e-43
0.309730 0.180773 0.199422 3.573311084e-43
0.289307 0.176093 0.184947 3.573311084e-43
0.370209 0.161273 0.143157 3.573311084e-43
0.342929 0.222801 0.229456 3.573311084e-43
0.328664 0.223495 0.235124 3.573311084e-43
